-2.2515 -3.12268 14.6696
-2.20886 -3.12471 14.6623
-2.17665 -3.11544 14.6338
-2.15272 -3.11578 14.6406
-2.12879 -3.11612 14.6474
-2.10127 -3.11241 14.6405
-2.07763 -3.11262 14.6443
-2.05957 -3.11932 14.6705
-2.02593 -3.1094 14.6472
-2.00114 -3.10827 14.6464
-1.96424 -3.09398 14.6064
-1.9264 -3.1032 14.6324
-1.89595 -3.09906 14.6404
-1.88128 -3.11 14.6801
-1.85727 -3.11035 14.6867
-1.81314 -3.10937 14.6634
-1.77616 -3.09369 14.6167
-1.75223 -3.09404 14.6234
-1.72829 -3.09439 14.63
-1.70505 -3.09622 14.6441
-1.65583 -3.09427 14.6439
-1.60034 -3.07857 14.5741
-1.58199 -3.09399 14.6638
-1.52992 -3.08256 14.6086
-1.50647 -3.08408 14.621
-1.45805 -3.08362 14.6281
-1.40753 -3.08059 14.6277
-1.3812 -3.0773 14.6208
-1.35979 -3.07921 14.6244
-1.33374 -3.07833 14.6331
-1.30783 -3.0764 14.6336
-1.28245 -3.07479 14.6336
-1.25981 -3.07711 14.6463
-1.21167 -3.06972 14.6043
-1.18418 -3.0726 14.6457
-1.13428 -3.07104 14.6526
-1.11023 -3.0714 14.6588
-1.08573 -3.07031 14.6578
-1.0621 -3.07211 14.6712
-1.03802 -3.07247 14.6774
-0.996217 -3.0758 14.6744
-0.970926 -3.07181 14.6589
-0.944948 -3.07043 14.6634
-0.920076 -3.07338 14.6893
-0.870185 -3.0726 14.7
-0.84594 -3.07963 14.7471
-0.769535 -3.06339 14.6793
-0.753376 -3.07351 14.7051
-0.726579 -3.06978 14.6993
-0.696541 -3.06157 14.6827
-0.584062 -3.07736 14.7521
-0.559787 -3.0777 14.7577
-0.532524 -3.07892 14.7818
-0.482175 -3.08099 14.8081
-0.456492 -3.08082 14.8168
-0.407739 -3.0815 14.8276
-0.384859 -3.08406 14.8382
-0.360925 -3.08603 14.8501
-0.334658 -3.08394 14.8506
-0.308513 -3.08328 14.8582
-0.282151 -3.09075 14.9088
-0.257636 -3.09108 14.914
-0.224469 -3.07192 14.8562
-0.220028 -3.10389 14.9371
-0.113256 -3.04707 14.7045
-0.0876976 -3.04946 14.7252
-0.0352765 -3.03669 14.6863
-0.0138996 -3.05041 14.7442
0.0150153 -3.05333 14.7806
0.0575456 -3.09199 14.9451
0.0871361 -3.09529 14.9841
0.110462 -3.09782 14.9938
0.131907 -3.10579 15.021
0.187457 -3.08682 14.9648
0.20602 -3.10528 15.0278
0.235743 -3.09392 14.9993
0.26044 -3.09422 15.0039
0.280041 -3.10333 15.0277
0.309859 -3.09484 15.0129
0.335842 -3.09294 15.0125
0.354589 -3.10708 15.0544
0.38229 -3.10697 15.0682
0.499822 -3.2116 15.5928
0.771686 -3.2557 15.8517
1.00901 -3.27384 15.9532
1.03224 -3.28727 15.9957
1.06587 -3.292 16.0412
1.09284 -3.29516 16.0574
1.83967 -3.45639 16.8969
1.8763 -3.46685 16.9597
1.90431 -3.46845 16.9672
-3.47953 -3.28069 15.2609
-3.43469 -3.26318 15.1947
-3.36655 -3.24523 15.1175
-3.26853 -3.2242 15.0503
-3.23535 -3.21515 15.008
-3.17793 -3.20641 14.9725
-3.14007 -3.19591 14.9504
-3.1102 -3.19004 14.9248
-3.00725 -3.18042 14.8676
-2.88466 -3.15571 14.7872
-2.79989 -3.14239 14.7389
-2.68915 -3.1292 14.7135
-2.66282 -3.12651 14.7048
-2.5339 -3.11612 14.677
-2.50592 -3.11235 14.6696
-2.45558 -3.10813 14.6512
-2.32777 -3.09787 14.624
-2.30127 -3.09751 14.6413
-2.14758 -3.08701 14.632
-2.12186 -3.0844 14.6236
-2.09707 -3.08326 14.6229
-2.0505 -3.08451 14.6339
-2.02535 -3.0843 14.6435
-2.00056 -3.08317 14.6427
-1.8011 -3.07125 14.6215
-1.77567 -3.06867 14.6132
-1.72783 -3.06938 14.6266
-1.70245 -3.0668 14.6183
-1.6026 -3.05946 14.6003
-1.57178 -3.05563 14.6139
-1.52953 -3.05761 14.6053
-1.50434 -3.05506 14.5971
-1.45708 -3.05722 14.6175
-1.25457 -3.04579 14.6253
-1.20851 -3.04423 14.6125
-1.1821 -3.04542 14.6372
-1.15666 -3.04146 14.6218
-1.1336 -3.04469 14.6426
-1.10957 -3.04505 14.6489
-1.08553 -3.04541 14.6551
-1.06062 -3.04288 14.6469
-1.03657 -3.04324 14.6531
-0.993617 -3.04227 14.6286
-0.970367 -3.04549 14.6491
-0.793562 -3.03818 14.671
-0.721186 -3.03923 14.6888
-0.697037 -3.03958 14.6947
-0.674298 -3.03951 14.6913
-0.647923 -3.036 14.6851
-0.607728 -3.04478 14.7049
-0.578183 -3.04328 14.7251
-0.550391 -3.04338 14.7458
-0.480696 -3.05411 14.8024
-0.455994 -3.05159 14.7939
-0.407315 -3.05227 14.8049
-0.38296 -3.0526 14.8103
-0.359013 -3.05722 14.8367
-0.334607 -3.05755 14.8421
-0.310189 -3.05788 14.8474
-0.282563 -3.05909 14.8712
-0.246946 -3.04067 14.8274
-0.137577 -3.02197 14.6975
-0.113339 -3.02231 14.7028
-0.0856534 -3.01929 14.7059
-0.0578874 -3.01065 14.6818
0.113533 -3.06515 14.9702
0.204978 -3.06603 14.9586
0.236818 -3.06671 14.9936
0.261502 -3.06701 14.9982
0.309484 -3.06812 15.004
0.353235 -3.07068 14.9994
0.383632 -3.06903 15.0174
0.409312 -3.0646 15.0049
0.433395 -3.08455 15.0918
1.90107 -3.43541 16.9425
-4.92901 -3.96247 18.4832
-4.93123 -3.98877 18.6106
-4.88577 -3.98024 18.6102
-4.76028 -3.97609 18.6007
-4.75928 -4.00078 18.7198
-3.8309 -3.34339 15.6216
-3.70224 -3.30054 15.4649
-3.55045 -3.27022 15.2803
-3.41501 -3.22136 15.1322
-3.35702 -3.21228 15.09
-3.27296 -3.20223 15.0524
-3.20131 -3.18039 14.9613
-3.16712 -3.17238 14.9409
-3.13769 -3.16868 14.9378
-3.10921 -3.16437 14.9204
-3.00359 -3.15179 14.847
-2.95929 -3.13426 14.7949
-2.93969 -3.13873 14.8168
-2.88308 -3.13063 14.7917
-2.79393 -3.11461 14.7443
-2.75333 -3.11971 14.7537
-2.71223 -3.10355 14.7021
-2.68826 -3.10387 14.7091
-2.6631 -3.10269 14.7083
-2.58571 -3.09392 14.664
-2.55475 -3.08756 14.6501
-2.52974 -3.0864 14.6493
-2.50459 -3.08614 14.6588
-2.45799 -3.08737 14.6702
-2.36957 -3.07064 14.6267
-2.30054 -3.07235 14.6372
-2.25274 -3.07302 14.6511
-2.17164 -3.06117 14.612
-2.14778 -3.0615 14.6189
-2.12121 -3.0593 14.6197
-2.09643 -3.05817 14.619
-2.05042 -3.05807 14.6145
-2.02476 -3.0592 14.6397
-2.00084 -3.05954 14.6466
-1.92839 -3.05539 14.6259
-1.84838 -3.04553 14.6043
-1.82605 -3.0488 14.6262
-1.79906 -3.04332 14.6029
-1.77367 -3.04076 14.5947
-1.7259 -3.04146 14.6082
-1.70205 -3.04387 14.6312
-1.65551 -3.04197 14.616
-1.60322 -3.0341 14.5877
-1.57006 -3.02778 14.5958
-1.50459 -3.03157 14.6012
-1.48253 -3.03626 14.63
-1.45673 -3.03228 14.6143
-1.40941 -3.03442 14.6347
-1.38485 -3.03333 14.6339
-1.36029 -3.03224 14.633
-1.33404 -3.03011 14.634
-1.30446 -3.02265 14.6149
-1.25614 -3.01864 14.5967
-1.21113 -3.01997 14.5984
-1.18137 -3.01909 14.6271
-1.1363 -3.02041 14.6286
-1.10936 -3.02015 14.6461
-1.08444 -3.01765 14.6379
-1.03639 -3.01835 14.6505
-1.00985 -3.01014 14.6135
-0.992896 -3.01946 14.642
-0.967377 -3.01655 14.6346
-0.944061 -3.01853 14.6475
-0.919285 -3.01725 14.6468
-0.867037 -3.01186 14.6413
-0.843699 -3.02117 14.6995
-0.816554 -3.00871 14.6412
-0.792815 -3.01048 14.6544
-0.768731 -3.01083 14.6604
-0.744636 -3.01118 14.6664
-0.720236 -3.01011 14.6652
-0.696408 -3.01188 14.6782
-0.672005 -3.01081 14.6771
-0.591594 -3.00077 14.668
-0.568853 -3.00961 14.7161
-0.545321 -3.01421 14.7431
-0.520877 -3.01314 14.7418
-0.47919 -3.01782 14.7443
-0.456027 -3.02667 14.7921
-0.407686 -3.03018 14.8171
-0.358936 -3.03085 14.828
-0.334681 -3.0326 14.8404
-0.30786 -3.02749 14.8275
-0.281288 -3.02494 14.8273
-0.106451 -2.98804 14.6831
-0.0822429 -2.98839 14.6885
0.0637223 -3.01838 14.8565
0.155468 -3.03902 14.9415
0.180291 -3.04356 14.9667
0.205995 -3.03746 14.946
0.231142 -3.04038 14.9648
0.306963 -3.04174 14.9879
0.352596 -3.04147 14.9783
0.381044 -3.04264 15.0014
0.409072 -3.03961 15.0042
0.433059 -3.0463 15.0336
0.459213 -3.04582 15.04
0.486212 -3.06302 15.1256
1.09539 -3.2433 16.0732
1.12271 -3.25946 16.1391
1.98892 -3.42239 17.0103
-4.94439 -3.56769 16.6516
-4.64637 -3.50957 16.4325
-4.97453 -3.90036 18.3608
-4.92032 -3.92662 18.4752
-3.8079 -3.2988 15.5448
-3.70542 -3.25562 15.3704
-3.68583 -3.26023 15.3933
-3.59129 -3.2214 15.226
-3.51297 -3.21387 15.164
-3.44299 -3.19723 15.1136
-3.39965 -3.18242 15.0705
-3.33595 -3.16938 15.0227
-3.25337 -3.15871 14.9677
-3.22899 -3.15898 14.9745
-3.15705 -3.13793 14.8969
-3.09712 -3.12657 14.8511
-3.02801 -3.12632 14.8305
-2.98429 -3.10961 14.7823
-2.95888 -3.10841 14.7813
-2.92127 -3.0963 14.7434
-2.87005 -3.09428 14.7505
-2.79451 -3.08833 14.7181
-2.76163 -3.08058 14.6994
-2.73525 -3.07791 14.6906
-2.71011 -3.07674 14.6898
-2.68735 -3.07854 14.7047
-2.65381 -3.0692 14.6748
-2.55276 -3.06086 14.6379
-2.52777 -3.0597 14.6371
-2.50098 -3.05744 14.6376
-2.44529 -3.05 14.6232
-2.42069 -3.05071 14.6394
-2.3688 -3.04549 14.6225
-2.32828 -3.05051 14.631
-2.296 -3.04317 14.6191
-2.27136 -3.04389 14.6352
-2.24911 -3.04347 14.624
-2.16729 -3.03207 14.5941
-2.14254 -3.03095 14.5935
-2.11964 -3.03275 14.6081
-2.0922 -3.02909 14.6013
-2.04361 -3.0274 14.5992
-2.02329 -3.03265 14.6283
-1.94487 -3.02204 14.5883
-1.92194 -3.022 14.586
-1.89554 -3.01983 14.5869
-1.84487 -3.01678 14.5869
-1.78394 -2.99966 14.5309
-1.77316 -3.01577 14.5911
-1.75125 -3.01535 14.5794
-1.721 -3.00781 14.5597
-1.69339 -3.00618 14.573
-1.64738 -3.00454 14.5577
-1.59971 -3.00524 14.5712
-1.56965 -3.00284 14.5924
-1.53004 -3.0106 14.6135
-1.5042 -3.00664 14.5979
-1.47827 -3.00523 14.6027
-1.44609 -2.99738 14.5939
-1.40137 -2.99906 14.5973
-1.38012 -3.00175 14.6063
-1.35315 -2.99665 14.5896
-1.3272 -2.99576 14.5984
-1.30136 -2.99386 14.5991
-1.2535 -2.99457 14.6122
-1.20841 -2.99195 14.5864
-1.18112 -2.9942 14.6242
-1.13571 -2.99281 14.609
-1.09776 -2.97696 14.5788
-1.08423 -2.99277 14.6352
-1.05501 -2.98074 14.5856
-1.0084 -2.98106 14.5891
-0.986209 -2.98364 14.601
-0.960486 -2.98177 14.6017
-0.936509 -2.98212 14.608
-0.912519 -2.98248 14.6142
-0.889617 -2.98707 14.6419
-0.864502 -2.98318 14.6265
-0.816099 -2.98247 14.6316
-0.792383 -2.98423 14.6448
-0.768319 -2.98458 14.6509
-0.741944 -2.9811 14.6448
-0.720154 -2.98528 14.6629
-0.696909 -2.98986 14.6902
-0.671941 -2.98598 14.6748
-0.595178 -2.97938 14.6685
-0.574672 -2.98313 14.677
-0.551201 -2.9877 14.704
-0.478616 -2.98873 14.7212
-0.42839 -2.98771 14.7312
-0.405928 -2.98975 14.7381
-0.38214 -2.9943 14.7647
-0.356085 -2.98991 14.7524
-0.326882 -2.99241 14.7919
-0.302555 -2.99275 14.7974
-0.0822953 -2.96227 14.68
-0.0339255 -2.9671 14.7112
-0.0164899 -2.97413 14.7206
0.186208 -2.99927 14.9004
0.21051 -2.9954 14.8847
0.235305 -2.9999 14.91
0.259867 -3.00022 14.9147
0.28433 -2.99913 14.9126
0.30902 -3.00084 14.9241
0.333737 -3.00254 14.9356
0.356021 -3.00709 14.9499
0.379621 -3.01329 14.9766
0.407589 -3.00346 14.9493
0.433053 -3.01073 14.9876
0.460911 -3.01255 15.011
0.486295 -3.01219 15.0151
0.510436 -3.03539 15.1158
1.10135 -3.22195 16.1149
1.12633 -3.21774 16.0964
1.15212 -3.21646 16.0919
1.9863 -3.39086 16.9926
2.02128 -3.3966 17.0344
-4.98905 -3.53255 16.6007
-4.88509 -3.49972 16.488
-4.89301 -3.52414 16.5972
-4.59026 -3.46155 16.3523
-4.5045 -3.43809 16.263
-4.002 -3.28703 15.5893
-3.76034 -3.23283 15.3605
-3.68426 -3.21049 15.2643
-3.65025 -3.20366 15.2468
-3.60072 -3.18359 15.1717
-3.57281 -3.18074 15.1617
-3.48723 -3.1654 15.0525
-3.46339 -3.16793 15.0857
-3.42547 -3.15662 15.0442
-3.39082 -3.14841 15.0194
-3.32468 -3.13422 14.9763
-3.23618 -3.11834 14.9013
-3.17138 -3.10315 14.8417
-3.14416 -3.10126 14.8451
-3.09607 -3.10099 14.8465
-3.00854 -3.08423 14.7656
-2.98059 -3.08115 14.7616
-2.94102 -3.06796 14.7247
-2.91575 -3.06678 14.7238
-2.86193 -3.06143 14.7117
-2.78088 -3.0505 14.6639
-2.75822 -3.05229 14.679
-2.73309 -3.05112 14.6782
-2.6964 -3.03924 14.6414
-2.66834 -3.0355 14.634
-2.64451 -3.03582 14.6412
-2.55188 -3.03564 14.6334
-2.51183 -3.01983 14.5832
-2.48917 -3.02162 14.5981
-2.4405 -3.02081 14.6047
-2.41989 -3.02553 14.6351
-2.36517 -3.01779 14.6119
-2.31528 -3.01177 14.5739
-2.28421 -3.00474 14.5573
-2.2601 -3.00639 14.58
-2.23373 -3.006 14.5976
-2.19135 -3.00811 14.5907
-2.1666 -3.007 14.5901
-2.14279 -3.00733 14.5971
-2.11536 -3.00369 14.5903
-2.08438 -2.99609 14.5698
-2.03452 -2.99339 14.5675
-1.94428 -2.99703 14.5844
-1.91425 -2.98923 14.5582
-1.89078 -2.98945 14.5621
-1.83321 -2.97834 14.5357
-1.7443 -2.98253 14.5492
-1.69327 -2.97838 14.5434
-1.64379 -2.97572 14.541
-1.59858 -2.97889 14.5603
-1.56626 -2.96897 14.5353
-1.5401 -2.96686 14.5365
-1.51768 -2.96805 14.5418
-1.49388 -2.9684 14.5486
-1.4687 -2.96792 14.5568
-1.44205 -2.96761 14.5745
-1.32496 -2.96862 14.5895
-1.30106 -2.96898 14.5961
-1.25055 -2.9634 14.5785
-1.19977 -2.95483 14.542
-1.16914 -2.95107 14.5563
-1.15303 -2.95836 14.5696
-1.12645 -2.95394 14.5573
-1.10138 -2.95561 14.5792
-1.05604 -2.95555 14.5736
-1.03342 -2.96012 14.6017
-1.0082 -2.95625 14.5864
-0.98175 -2.95277 14.5803
-0.958554 -2.95474 14.5935
-0.934521 -2.95329 14.5884
-0.909197 -2.95223 14.5925
-0.857849 -2.94851 14.594
-0.831166 -2.94484 14.5885
-0.782913 -2.94416 14.5938
-0.767897 -2.95835 14.6413
-0.743228 -2.9559 14.6332
-0.712246 -2.94574 14.6091
-0.686947 -2.94557 14.6184
-0.662924 -2.94592 14.6244
-0.638888 -2.94628 14.6305
-0.594402 -2.95038 14.6451
-0.574632 -2.95832 14.6749
-0.5442 -2.94987 14.6596
-0.518529 -2.94802 14.6602
-0.494216 -2.94698 14.659
-0.4703 -2.94872 14.6719
-0.446352 -2.95046 14.6847
-0.425581 -2.9528 14.686
-0.399386 -2.95194 14.6944
-0.373702 -2.9501 14.6949
-0.351022 -2.95263 14.7057
-0.322207 -2.95158 14.7247
-0.0823778 -2.93754 14.6784
-0.0581803 -2.93788 14.6837
-0.0339739 -2.93822 14.6891
-0.00975572 -2.93855 14.6944
0.185195 -2.95773 14.8174
0.210089 -2.96635 14.8632
0.235023 -2.97359 14.9021
0.262056 -2.96847 14.8919
0.283914 -2.97145 14.8981
0.312188 -2.96445 14.8844
0.33302 -2.97207 14.9075
0.357858 -2.97514 14.9258
0.383838 -2.97468 14.9324
0.408443 -2.97498 14.937
0.433255 -2.97695 14.9497
0.45698 -2.9819 14.9711
0.4888 -2.97971 14.9926
0.511843 -2.98167 14.9978
0.537586 -2.97616 14.9813
0.557594 -2.99556 15.0493
0.582379 -2.99585 15.0536
0.687205 -3.1671 15.8916
0.769148 -3.15383 15.859
2.02119 -3.36015 17.009
2.04856 -3.36022 17.0094
-4.96053 -3.48395 16.4847
-4.87763 -3.46683 16.457
-4.4612 -3.37884 16.1143
-4.20633 -3.30112 15.7482
-3.84125 -3.21213 15.3708
-3.73716 -3.18924 15.2902
-3.67397 -3.17728 15.2357
-3.63132 -3.16312 15.1851
-3.49085 -3.1441 15.0728
-3.41569 -3.12384 15.0162
-3.37603 -3.11148 14.9757
-3.31509 -3.10003 14.9267
-3.2302 -3.08902 14.8882
-3.17028 -3.07757 14.837
-3.14187 -3.07336 14.8196
-3.07616 -3.05891 14.7808
-3.00491 -3.0569 14.7578
-2.96659 -3.04523 14.7288
-2.93866 -3.04109 14.712
-2.91472 -3.04139 14.7191
-2.86293 -3.03756 14.7094
-2.77864 -3.02374 14.6513
-2.75725 -3.02699 14.6743
-2.71926 -3.01368 14.6296
-2.6948 -3.01434 14.6459
-2.6674 -3.01027 14.6294
-2.64358 -3.01059 14.6367
-2.56182 -2.99841 14.5877
-2.54283 -3.0024 14.6002
-2.51095 -2.9947 14.5787
-2.4872 -2.99502 14.5859
-2.44089 -2.99626 14.5976
-2.35272 -2.98069 14.5651
-2.30939 -2.98138 14.5509
-2.28309 -2.98098 14.5686
-2.23479 -2.98201 14.592
-2.1659 -2.98193 14.586
-2.13846 -2.97831 14.5792
-2.10477 -2.96822 14.5525
-2.08013 -2.96713 14.5521
-2.03388 -2.96838 14.5635
-1.96747 -2.97168 14.5736
-1.90625 -2.95665 14.5334
-1.88253 -2.957 14.5405
-1.85717 -2.95449 14.5324
-1.83265 -2.95342 14.5319
-1.74227 -2.95476 14.5305
-1.68693 -2.94483 14.503
-1.63464 -2.94059 14.5054
-1.5865 -2.93988 14.5118
-1.56277 -2.94023 14.5187
-1.53901 -2.94058 14.5256
-1.5146 -2.93952 14.525
-1.49147 -2.94129 14.5393
-1.46768 -2.94164 14.5461
-1.44387 -2.94199 14.5528
-1.35356 -2.94331 14.5499
-1.31617 -2.93219 14.5479
-1.29324 -2.93416 14.5616
-1.24711 -2.92932 14.5256
-1.19897 -2.92863 14.5316
-1.17664 -2.93319 14.56
-1.15179 -2.93074 14.552
-1.12624 -2.93006 14.5605
-1.10498 -2.93425 14.5796
-1.08107 -2.9346 14.586
-1.05582 -2.93075 14.5707
-1.023 -2.92002 14.5492
-0.999646 -2.91841 14.5396
-0.982824 -2.9276 14.5683
-0.953943 -2.92034 14.55
-0.902412 -2.91762 14.5597
-0.857246 -2.91758 14.5539
-0.830677 -2.91869 14.5788
-0.782789 -2.91939 14.5913
-0.741269 -2.92274 14.588
-0.713628 -2.91969 14.5913
-0.686573 -2.91941 14.6089
-0.662018 -2.91699 14.6008
-0.638553 -2.92011 14.6211
-0.614014 -2.91769 14.613
-0.572448 -2.92101 14.6091
-0.54259 -2.9229 14.6522
-0.518502 -2.92324 14.6581
-0.471599 -2.92445 14.6666
-0.446166 -2.92428 14.6757
-0.397883 -2.92496 14.6872
-0.373256 -2.92115 14.672
-0.349552 -2.92564 14.6987
-0.325369 -2.92598 14.7044
-0.0811076 -2.91231 14.68
-0.0340669 -2.91349 14.6875
-0.00646859 -2.9146 14.7114
0.185031 -2.93291 14.8162
0.209451 -2.93323 14.8212
0.233881 -2.93354 14.8261
0.261952 -2.93466 14.8496
0.308632 -2.93398 14.8441
0.356178 -2.93511 14.8503
0.386741 -2.93753 14.8889
0.411038 -2.93899 14.8978
0.434426 -2.94508 14.9236
0.461976 -2.93932 14.9131
0.487462 -2.94649 14.9514
0.513052 -2.95367 14.9897
0.556784 -2.95442 14.9772
0.58592 -2.96123 15.0267
0.608861 -2.96753 15.0496
0.767827 -3.11773 15.8145
0.808474 -3.11158 15.8465
2.05175 -3.33395 17.0264
-4.94526 -3.44751 16.4623
-4.85873 -3.42554 16.3791
-4.51177 -3.34808 16.0532
-4.43153 -3.32855 15.984
-4.24979 -3.28715 15.7812
-3.92957 -3.19765 15.4155
-3.88155 -3.18052 15.355
-3.62481 -3.1328 15.1642
-3.56084 -3.11953 15.1022
-3.37112 -3.08216 14.9529
-3.14077 -3.04782 14.8148
-3.07508 -3.03343 14.776
-2.9376 -3.01572 14.7072
-2.91368 -3.01601 14.7144
-2.84926 -3.00184 14.6771
-2.77888 -2.99993 14.6546
-2.69385 -2.9891 14.6413
-2.66764 -2.9865 14.6327
-2.64265 -2.98537 14.6321
-2.48632 -2.96989 14.5814
-2.44494 -2.97348 14.5826
-2.41184 -2.96653 14.5797
-2.31063 -2.9592 14.562
-2.28309 -2.95557 14.5551
-2.25403 -2.95264 14.5667
-2.23486 -2.95658 14.5787
-2.16423 -2.95544 14.5742
-2.0822 -2.94641 14.571
-2.03372 -2.9421 14.5439
-1.96513 -2.94384 14.5544
-1.93799 -2.93848 14.5311
-1.88194 -2.93206 14.5366
-1.85659 -2.92957 14.5286
-1.83208 -2.9285 14.5281
-1.63557 -2.91856 14.5167
-1.58604 -2.91504 14.5082
-1.56164 -2.91398 14.5077
-1.53659 -2.91152 14.4998
-1.51417 -2.91468 14.5215
-1.49106 -2.91644 14.5358
-1.46728 -2.91679 14.5427
-1.44348 -2.91714 14.5495
-1.42151 -2.9217 14.5785
-1.37026 -2.91398 14.5477
-1.29088 -2.90808 14.5608
-1.15151 -2.90595 14.549
-1.12671 -2.90351 14.541
-1.05424 -2.90178 14.5461
-0.904827 -2.89214 14.5385
-0.857078 -2.89284 14.5512
-0.830179 -2.89255 14.569
-0.782331 -2.89325 14.5816
-0.740211 -2.89385 14.564
-0.716275 -2.8942 14.5702
-0.685904 -2.89189 14.5923
-0.66193 -2.89224 14.5984
-0.637943 -2.89259 14.6046
-0.596394 -2.89593 14.6007
-0.571665 -2.89214 14.5856
-0.544737 -2.89669 14.6308
-0.517821 -2.89433 14.6348
-0.476206 -2.89764 14.6305
-0.400215 -2.89874 14.6661
-0.349135 -2.89673 14.6758
-0.324989 -2.89706 14.6815
-0.0792225 -2.88886 14.6935
0.184804 -2.90671 14.8081
0.209284 -2.9084 14.82
0.23371 -2.90871 14.8249
0.258051 -2.90766 14.8231
0.282694 -2.91071 14.8416
0.307045 -2.90966 14.8397
0.355984 -2.91028 14.8493
0.386286 -2.91381 14.8922
0.462092 -2.91717 14.9258
0.554589 -2.92908 14.9672
0.58318 -2.93017 14.9904
0.611826 -2.93126 15.0135
0.630729 -2.94226 15.0408
-4.96886 -3.43361 16.4787
-4.83447 -3.38262 16.3194
-4.80335 -3.37942 16.3065
-4.77228 -3.37622 16.2937
-4.62919 -3.34817 16.1504
-4.55703 -3.334 16.0888
-4.4999 -3.31342 16.0224
-4.40128 -3.27944 15.8722
-4.17515 -3.22361 15.6073
-4.08792 -3.19803 15.5259
-3.96211 -3.1759 15.4026
-3.93457 -3.17526 15.4188
-3.89259 -3.16216 15.3659
-3.81468 -3.14077 15.2866
-3.64326 -3.10195 15.1274
-3.63027 -3.10998 15.1486
-3.55479 -3.08903 15.0723
-3.46378 -3.07319 15.0011
-3.36869 -3.05579 14.9504
-3.32043 -3.05349 14.9198
-3.23038 -3.03857 14.8685
-3.13965 -3.02228 14.8099
-3.11557 -3.02256 14.8171
-3.07678 -3.0109 14.7874
-2.97472 -3.0019 14.7311
-2.93787 -2.99181 14.7104
-2.91264 -2.99065 14.7096
-2.78164 -2.97902 14.6737
-2.75032 -2.97061 14.6332
-2.72897 -2.97382 14.6563
-2.70269 -2.97122 14.6477
-2.66669 -2.96129 14.6281
-2.64172 -2.96016 14.6275
-2.54806 -2.95862 14.612
-2.43919 -2.946 14.5888
-2.4153 -2.94717 14.6065
-2.38939 -2.94462 14.5981
-2.36352 -2.94208 14.5898
-2.28612 -2.93447 14.5649
-2.23481 -2.93401 14.5953
-2.16606 -2.93114 14.5592
-2.14072 -2.93216 14.5849
-2.11414 -2.92822 14.5689
-2.08153 -2.9214 14.5669
-2.03306 -2.91713 14.5399
-1.9645 -2.91886 14.5505
-1.93906 -2.91637 14.5423
-1.91275 -2.91422 14.5435
-1.8552 -2.90325 14.5172
-1.83151 -2.90359 14.5243
-1.78861 -2.90429 14.5089
-1.74043 -2.90356 14.5155
-1.71447 -2.89969 14.4999
-1.68344 -2.89267 14.4898
-1.63508 -2.89371 14.5131
-1.60996 -2.89125 14.5051
-1.56253 -2.89195 14.5191
-1.51243 -2.88706 14.5032
-1.49064 -2.89159 14.5324
-1.46687 -2.89194 14.5393
-1.44309 -2.89229 14.5461
-1.41991 -2.89403 14.5604
-1.3699 -2.88914 14.5444
-1.19888 -2.88046 14.5327
-1.15124 -2.88116 14.546
-1.1274 -2.88151 14.5526
-1.10354 -2.88185 14.5591
-1.07922 -2.88082 14.5584
-1.0549 -2.87978 14.5577
-0.907216 -2.8667 14.5171
-0.856907 -2.86811 14.5485
-0.829323 -2.86506 14.552
-0.787898 -2.86844 14.5489
-0.764968 -2.8729 14.5766
-0.74008 -2.86913 14.5615
-0.714511 -2.8673 14.5623
-0.68406 -2.85894 14.5471
-0.660156 -2.85929 14.5534
-0.618506 -2.86916 14.591
-0.596066 -2.86982 14.5913
-0.568001 -2.86406 14.5806
-0.544023 -2.8644 14.5867
-0.516023 -2.85864 14.5761
-0.491841 -2.85762 14.5751
-0.472018 -2.86543 14.6047
-0.420416 -2.86275 14.6141
-0.397882 -2.86272 14.6107
-0.371999 -2.8607 14.6119
-0.347952 -2.86104 14.6178
-0.323893 -2.86139 14.6236
-0.300863 -2.87263 14.6853
0.0592004 -2.86462 14.687
0.153278 -2.88142 14.7712
0.205337 -2.87874 14.7796
0.23354 -2.88389 14.8238
0.25797 -2.8842 14.8287
0.282411 -2.88451 14.8337
0.306861 -2.88482 14.8386
0.355791 -2.88544 14.8483
0.381678 -2.88524 14.8565
0.435158 -2.88954 14.9008
0.459965 -2.89189 14.9156
0.479876 -2.89918 14.9327
0.505047 -2.90355 14.9575
0.530281 -2.90793 14.9823
0.554349 -2.90414 14.9665
0.579013 -2.90444 14.9709
0.603686 -2.90473 14.9753
0.634898 -2.91182 15.0343
0.657342 -2.91638 15.0478
1.11666 -3.02694 15.6523
-5.11164 -3.41585 16.5797
-5.02385 -3.39313 16.4763
-4.93491 -3.38378 16.3808
-4.83059 -3.35183 16.2835
-4.79352 -3.34523 16.2659
-4.61357 -3.30824 16.0543
-4.46942 -3.26381 15.8976
-4.38748 -3.24352 15.8326
-4.26788 -3.21096 15.6728
-4.07069 -3.16001 15.4787
-3.986 -3.14931 15.3915
-3.95359 -3.14333 15.3633
-3.91277 -3.13253 15.3373
-3.86885 -3.11837 15.2852
-3.81539 -3.11468 15.2652
-3.71282 -3.09269 15.1834
-3.65371 -3.08373 15.137
-3.60753 -3.06714 15.0789
-3.55198 -3.06162 15.0591
-3.47853 -3.0567 14.9897
-3.40924 -3.04059 14.9402
-3.36841 -3.02941 14.9274
-3.30078 -3.0128 14.8606
-3.2186 -3.00285 14.8122
-3.16258 -2.99648 14.7979
-3.13038 -2.99007 14.7825
-3.09685 -2.98221 14.7591
-3.07148 -2.98103 14.7582
-2.96338 -2.96906 14.7144
-2.93547 -2.96499 14.6975
-2.91026 -2.96383 14.6967
-2.8551 -2.95674 14.6729
-2.79685 -2.94477 14.6138
-2.74931 -2.94537 14.6284
-2.7163 -2.93801 14.6155
-2.68827 -2.93433 14.6082
-2.66453 -2.93464 14.6155
-2.64077 -2.93495 14.6229
-2.61818 -2.9367 14.6381
-2.5401 -2.92695 14.5864
-2.50711 -2.91792 14.5571
-2.48858 -2.92362 14.5867
-2.43712 -2.9203 14.587
-2.41339 -2.92062 14.5943
-2.38857 -2.91951 14.5938
-2.36482 -2.91983 14.601
-2.30902 -2.90909 14.5533
-2.28075 -2.90582 14.5557
-2.25251 -2.90256 14.5581
-2.23258 -2.90681 14.5795
-2.10268 -2.89324 14.5402
-2.07808 -2.89217 14.5398
-2.03238 -2.89216 14.5358
-1.95175 -2.88119 14.5072
-1.92639 -2.87873 14.4992
-1.90191 -2.87767 14.4989
-1.87827 -2.87801 14.5061
-1.8546 -2.87835 14.5133
-1.83093 -2.87869 14.5204
-1.7849 -2.87382 14.4749
-1.7302 -2.86715 14.4718
-1.70411 -2.86505 14.4731
-1.67974 -2.864 14.4728
-1.65682 -2.86573 14.4873
-1.63122 -2.86412 14.4899
-1.56139 -2.86572 14.508
-1.53701 -2.86468 14.5076
-1.48904 -2.86426 14.5155
-1.46583 -2.86571 14.5284
-1.43386 -2.856 14.5038
-1.34109 -2.8536 14.4888
-1.31702 -2.85717 14.5228
-1.29812 -2.86535 14.5614
-1.24559 -2.85361 14.5087
-1.19805 -2.85431 14.5222
-1.11751 -2.84436 14.5139
-1.09279 -2.84196 14.506
-1.07376 -2.84848 14.5304
-1.05174 -2.85103 14.5427
-1.02101 -2.84165 14.5188
-0.98219 -2.85329 14.5598
-0.955851 -2.84541 14.5229
-0.907009 -2.842 14.5142
-0.857641 -2.84051 14.5217
-0.808082 -2.83777 14.5217
-0.783063 -2.83625 14.522
-0.759211 -2.83659 14.5284
-0.732402 -2.83164 14.516
-0.706915 -2.82982 14.5169
-0.683356 -2.83153 14.5304
-0.6592 -2.83052 14.5296
-0.63614 -2.83494 14.5571
-0.587529 -2.83156 14.5483
-0.563613 -2.83191 14.5545
-0.539684 -2.83225 14.5606
-0.515742 -2.8326 14.5667
-0.491155 -2.82888 14.5517
-0.467821 -2.83328 14.5789
-0.444032 -2.83498 14.5919
-0.419306 -2.82991 14.5699
-0.395845 -2.83431 14.5969
-0.371828 -2.83465 14.6028
-0.347799 -2.83499 14.6087
-0.323757 -2.83533 14.6146
-0.299835 -2.83702 14.6274
-0.275638 -2.83601 14.6262
-0.0168293 -2.83821 14.6506
0.0315076 -2.84021 14.6682
0.0611512 -2.84116 14.7008
0.0867458 -2.84096 14.7095
0.110994 -2.84129 14.7148
0.159524 -2.84193 14.7252
0.183867 -2.8436 14.7373
0.208096 -2.84257 14.7356
0.237334 -2.84656 14.7793
0.262387 -2.84834 14.7943
0.282133 -2.85833 14.8257
0.307942 -2.85786 14.8327
0.331135 -2.8603 14.8423
0.3556 -2.86061 14.8472
0.380076 -2.86091 14.852
0.405002 -2.86526 14.8772
0.432822 -2.86227 14.8803
0.461139 -2.86332 14.9038
0.485697 -2.86363 14.9085
0.510264 -2.86393 14.9132
0.53484 -2.86423 14.9178
0.557954 -2.86974 14.9395
0.582842 -2.86695 14.9316
0.607329 -2.86879 14.9423
0.633469 -2.86677 14.9427
0.661901 -2.87596 15.0001
0.685506 -2.88218 15.0255
0.710255 -2.88247 15.0297
1.14585 -2.9866 15.6132
1.18955 -3.01768 15.7981
2.0851 -3.25434 17.0645
2.11001 -3.25929 17.0725
-5.1507 -3.39483 16.5818
-5.09855 -3.38023 16.5474
-4.80097 -3.30443 16.182
-4.74466 -3.2847 16.1043
-4.68997 -3.28338 16.1071
-4.4771 -3.22426 15.8272
-4.4509 -3.22512 15.8518
-4.35611 -3.1948 15.7284
-4.24805 -3.17107 15.6159
-4.05875 -3.12362 15.4035
-3.9577 -3.10274 15.3019
-3.93466 -3.1045 15.3173
-3.89641 -3.09466 15.2818
-3.793 -3.07245 15.1958
-3.69461 -3.05259 15.1096
-3.63078 -3.04097 15.067
-3.6 -3.03608 15.0509
-3.53281 -3.02207 15.0066
-3.45981 -3.02008 14.983
-3.39699 -3.00725 14.922
-3.35706 -2.99548 14.8909
-3.2996 -2.98719 14.8556
-3.20315 -2.96728 14.7904
-3.16142 -2.97097 14.7929
-3.11965 -2.95647 14.7469
-3.09572 -2.95676 14.7542
-3.07036 -2.95559 14.7533
-3.01003 -2.94311 14.6949
-2.95418 -2.93503 14.6611
-2.93304 -2.9382 14.6846
-2.90146 -2.93192 14.6699
-2.84601 -2.92388 14.6365
-2.77457 -2.92271 14.6322
-2.74335 -2.91648 14.618
-2.71469 -2.91312 14.6199
-2.6885 -2.91057 14.6114
-2.66356 -2.90945 14.6108
-2.63982 -2.90976 14.6182
-2.61488 -2.90864 14.6177
-2.53213 -2.89535 14.5608
-2.50732 -2.89425 14.5604
-2.48365 -2.89456 14.5678
-2.43694 -2.89487 14.5732
-2.35262 -2.88469 14.571
-2.28453 -2.88437 14.5562
-2.25173 -2.87753 14.5539
-2.23106 -2.88208 14.5845
-2.13073 -2.86944 14.5071
-2.10104 -2.86686 14.5284
-2.03338 -2.86656 14.5131
-1.94937 -2.8535 14.4879
-1.9249 -2.85244 14.4876
-1.90128 -2.85278 14.4948
-1.87765 -2.85312 14.5021
-1.85318 -2.85206 14.5017
-1.82792 -2.84962 14.4938
-1.78431 -2.84898 14.4709
-1.74999 -2.83817 14.4474
-1.72565 -2.83713 14.4471
-1.70281 -2.83885 14.4618
-1.6792 -2.83919 14.469
-1.65557 -2.83953 14.4761
-1.63193 -2.83987 14.4832
-1.55888 -2.83868 14.4984
-1.50757 -2.82918 14.4514
-1.48185 -2.83019 14.4771
-1.45354 -2.8257 14.473
-1.43051 -2.82742 14.4875
-1.40499 -2.82365 14.4722
-1.3638 -2.82713 14.4711
-1.34012 -2.82748 14.478
-1.317 -2.82919 14.4923
-1.29328 -2.82954 14.4992
-1.27065 -2.83262 14.5207
-1.24526 -2.82885 14.5055
-1.2231 -2.83331 14.5343
-1.19774 -2.82954 14.519
-1.16858 -2.82235 14.5005
-1.14868 -2.82612 14.5105
-1.12491 -2.82647 14.5172
-1.04454 -2.81658 14.5091
-1.02077 -2.81693 14.5158
-0.954802 -2.81797 14.5055
-0.931002 -2.81832 14.512
-0.906799 -2.8173 14.5113
-0.851943 -2.8068 14.4877
-0.802354 -2.80513 14.4957
-0.778221 -2.80413 14.495
-0.754094 -2.80312 14.4943
-0.73029 -2.80347 14.5008
-0.706777 -2.80517 14.5143
-0.682936 -2.80551 14.5207
-0.659081 -2.80586 14.527
-0.635213 -2.8062 14.5333
-0.610541 -2.8025 14.5183
-0.566377 -2.80655 14.5333
-0.539377 -2.80623 14.5512
-0.515454 -2.80657 14.5573
-0.469238 -2.80826 14.5672
-0.443608 -2.8076 14.5756
-0.392484 -2.80291 14.5717
-0.347638 -2.80895 14.5996
-0.323614 -2.80929 14.6055
-0.299578 -2.80963 14.6114
-0.27553 -2.80996 14.6172
-0.251469 -2.8103 14.623
-0.154213 -2.79556 14.5629
-0.131682 -2.79936 14.5805
-0.106249 -2.79757 14.5812
-0.0857564 -2.80523 14.6096
-0.0616718 -2.80556 14.6152
-0.0375757 -2.80588 14.6207
-0.010126 -2.80691 14.645
0.0173919 -2.80393 14.6486
0.0381683 -2.81158 14.6766
0.0640679 -2.81225 14.6913
0.0866311 -2.81624 14.7079
0.1122 -2.81444 14.7084
0.135251 -2.8209 14.7391
0.15924 -2.81319 14.7033
0.183668 -2.81752 14.729
0.207955 -2.81784 14.7342
0.235824 -2.81886 14.7581
0.263477 -2.81588 14.7615
0.287811 -2.8162 14.7667
0.310662 -2.82017 14.7827
0.334776 -2.82437 14.805
0.358336 -2.82846 14.8241
0.379882 -2.83608 14.851
0.404509 -2.83772 14.8626
0.430263 -2.83617 14.864
0.460754 -2.8371 14.8962
0.485299 -2.83741 14.9009
0.510038 -2.83905 14.9124
0.534416 -2.83801 14.9103
0.558989 -2.83831 14.9149
0.583784 -2.83994 14.9263
0.608384 -2.84024 14.9308
0.634157 -2.83842 14.9308
0.663578 -2.84193 14.968
0.718241 -2.80629 14.7516
0.747098 -2.79822 14.7385
0.816194 -2.80907 14.7776
0.845133 -2.81851 14.8367
0.925928 -2.83203 14.9276
0.949527 -2.82834 14.912
2.14027 -3.22889 17.0758
-5.14486 -3.34572 16.4673
-5.15262 -3.36788 16.5697
-4.87197 -3.28774 16.1855
-4.75962 -3.25011 16.0573
-4.72987 -3.24835 16.0633
-4.68335 -3.23465 16.0048
-4.64411 -3.22518 15.9559
-4.40761 -3.16721 15.6856
-4.34383 -3.15881 15.663
-4.11771 -3.10386 15.411
-4.03722 -3.08336 15.3531
-3.95831 -3.07801 15.3058
-3.89253 -3.04888 15.2039
-3.87598 -3.05434 15.2211
-3.77246 -3.03195 15.1341
-3.69006 -3.02228 15.0623
-3.61532 -3.00377 15.0126
-3.5893 -3.00254 15.0113
-3.53783 -2.98243 14.9467
-3.52832 -2.99329 14.9848
-3.38083 -2.96895 14.8604
-3.34806 -2.96328 14.8572
-3.28839 -2.95344 14.8193
-3.17408 -2.93741 14.759
-3.15496 -2.94172 14.7817
-3.10891 -2.92298 14.7111
-3.08363 -2.92183 14.7104
-3.05172 -2.91552 14.6954
-2.95577 -2.91259 14.6723
-2.92417 -2.90633 14.6576
-2.89264 -2.90007 14.6431
-2.84047 -2.89466 14.6166
-2.79473 -2.89434 14.604
-2.76479 -2.88955 14.5978
-2.7349 -2.88478 14.5917
-2.70874 -2.88225 14.5832
-2.67894 -2.87749 14.5772
-2.65407 -2.87639 14.5768
-2.62921 -2.87528 14.5764
-2.59953 -2.87055 14.5705
-2.55716 -2.87277 14.5645
-2.53004 -2.86885 14.5483
-2.50233 -2.86524 14.5413
-2.4787 -2.86555 14.5488
-2.44301 -2.85414 14.5132
-2.42741 -2.86227 14.5493
-2.3991 -2.85899 14.5517
-2.37546 -2.85931 14.5592
-2.34862 -2.85542 14.5432
-2.32184 -2.85154 14.5272
-2.27533 -2.85187 14.5328
-2.2464 -2.84893 14.5447
-2.2273 -2.85283 14.5569
-2.14467 -2.83707 14.4862
-2.1211 -2.8374 14.4936
-2.09938 -2.84051 14.5164
-2.0739 -2.83806 14.5084
-2.02038 -2.8307 14.4863
-1.94784 -2.82724 14.4762
-1.92339 -2.82618 14.4759
-1.89723 -2.82407 14.4772
-1.86687 -2.81676 14.4575
-1.83913 -2.8119 14.4438
-1.81559 -2.81224 14.4511
-1.74941 -2.81337 14.4435
-1.72261 -2.80991 14.4374
-1.69723 -2.80761 14.4327
-1.67229 -2.80679 14.4386
-1.64655 -2.80303 14.4234
-1.62096 -2.8021 14.4327
-1.57785 -2.80341 14.4263
-1.54751 -2.79956 14.4409
-1.4803 -2.80012 14.4355
-1.4531 -2.80094 14.4695
-1.42715 -2.79888 14.471
-1.38888 -2.80614 14.4829
-1.36053 -2.79863 14.4548
-1.33688 -2.79897 14.4618
-1.3104 -2.79556 14.456
-1.28484 -2.79371 14.4572
-1.25807 -2.7901 14.4518
-1.23577 -2.79128 14.4571
-1.21023 -2.78944 14.4583
-1.19044 -2.79321 14.4685
-1.16289 -2.79013 14.4721
-1.14226 -2.79411 14.4884
-1.11732 -2.79301 14.4915
-1.09129 -2.78982 14.4853
-1.06803 -2.79152 14.4994
-1.04249 -2.78969 14.5005
-0.969149 -2.78075 14.461
-0.944203 -2.77705 14.446
-0.922241 -2.77957 14.4582
-0.898522 -2.77991 14.4649
-0.849342 -2.77844 14.4726
-0.826671 -2.78282 14.5008
-0.800784 -2.77511 14.4643
-0.77638 -2.77733 14.4869
-0.752609 -2.77596 14.482
-0.729503 -2.77614 14.4838
-0.702066 -2.76889 14.46
-0.679011 -2.77415 14.4945
-0.652861 -2.77167 14.4951
-0.634824 -2.7802 14.5237
-0.584275 -2.76618 14.4584
-0.560498 -2.76652 14.4647
-0.536708 -2.76686 14.471
-0.511463 -2.76754 14.4866
-0.465259 -2.76789 14.4898
-0.415802 -2.76691 14.501
-0.393692 -2.76892 14.5083
-0.366312 -2.76593 14.5121
-0.344427 -2.76747 14.5153
-0.320268 -2.76828 14.5253
-0.295181 -2.76479 14.5151
-0.271779 -2.76543 14.5204
-0.24295 -2.76032 14.5192
-0.224532 -2.76963 14.5492
-0.200567 -2.76996 14.5551
-0.178308 -2.77195 14.562
-0.154314 -2.77229 14.5678
-0.128097 -2.76745 14.5558
-0.106291 -2.77295 14.5793
-0.0787153 -2.766 14.5624
-0.05539 -2.767 14.5685
-0.0306932 -2.76667 14.5738
-0.00162697 -2.76602 14.5971
0.0207125 -2.77197 14.6244
0.0447948 -2.76172 14.5751
0.0676134 -2.77714 14.6527
0.0917897 -2.77906 14.6664
0.117289 -2.77726 14.667
0.165503 -2.77394 14.6573
0.189795 -2.77691 14.6763
0.211722 -2.78401 14.7051
0.235198 -2.78615 14.7159
0.262609 -2.78052 14.7058
0.287057 -2.78349 14.7246
0.310012 -2.78943 14.7509
0.359235 -2.79602 14.7916
0.387127 -2.79153 14.7888
0.409882 -2.79699 14.811
0.431477 -2.80457 14.8377
0.458893 -2.79893 14.8275
0.485079 -2.81253 14.9001
0.513744 -2.80478 14.8851
0.562106 -2.80241 14.8785
0.584864 -2.81142 14.9147
0.622502 -2.75633 14.6343
0.651707 -2.75624 14.6573
0.694391 -2.75336 14.6292
0.724163 -2.76218 14.692
0.748456 -2.76248 14.6968
0.770402 -2.76995 14.7224
0.819099 -2.77055 14.7316
0.849563 -2.77439 14.7741
0.87451 -2.77905 14.7985
0.926831 -2.79604 14.8864
0.952516 -2.7852 14.8502
1.02968 -2.81299 14.9822
1.10884 -2.83475 15.0932
1.1947 -2.85274 15.2102
1.25146 -2.87303 15.3152
2.13951 -3.18193 17.0148
2.20455 -3.20765 17.1286
-5.00674 -3.2662 16.2632
-4.85684 -3.25124 16.1441
-4.73433 -3.20715 15.9884
-4.61153 -3.1771 15.8602
-4.38936 -3.12859 15.6275
-4.30386 -3.10516 15.5416
-4.10239 -3.06739 15.363
-4.06104 -3.05665 15.3363
-4.02857 -3.05081 15.3082
-3.93181 -3.03336 15.2247
-3.85574 -3.01402 15.1543
-3.82041 -3.0053 15.1099
-3.76189 -2.99892 15.0994
-3.60153 -2.96821 14.9666
-3.57727 -2.96846 14.9738
-3.50747 -2.95255 14.9238
-3.44467 -2.93994 14.8632
-3.33517 -2.92735 14.7995
-3.27715 -2.9198 14.7829
-3.16215 -2.90219 14.7056
-3.1354 -2.89959 14.6967
-3.10101 -2.89245 14.6917
-3.07152 -2.88702 14.6666
-3.04916 -2.88873 14.6822
-2.98913 -2.87649 14.6242
-2.93357 -2.86856 14.5908
-2.91393 -2.8731 14.6226
-2.88889 -2.87198 14.622
-2.82859 -2.86041 14.583
-2.76005 -2.86213 14.5953
-2.73136 -2.85679 14.5709
-2.70523 -2.85428 14.5624
-2.64578 -2.84482 14.5506
-2.62098 -2.84372 14.5503
-2.5562 -2.84767 14.5598
-2.52794 -2.84237 14.5357
-2.50205 -2.83988 14.5274
-2.41854 -2.82945 14.5161
-2.39823 -2.83394 14.5472
-2.34777 -2.8304 14.5387
-2.32416 -2.83071 14.5462
-2.26465 -2.82004 14.5279
-2.21445 -2.81653 14.5197
-2.1439 -2.81216 14.4819
-2.12034 -2.81248 14.4893
-2.06063 -2.80055 14.4643
-2.01614 -2.80199 14.4684
-1.96984 -2.80067 14.457
-1.88635 -2.78779 14.4325
-1.86284 -2.78813 14.4399
-1.83686 -2.78436 14.4245
-1.81498 -2.78743 14.4471
-1.68661 -2.77006 14.3784
-1.66537 -2.77448 14.4083
-1.63968 -2.77074 14.3931
-1.61956 -2.77573 14.4199
-1.57593 -2.77597 14.4076
-1.54702 -2.77482 14.4372
-1.50461 -2.77562 14.4216
-1.47507 -2.76846 14.4028
-1.424 -2.7657 14.4136
-1.37566 -2.76369 14.4131
-1.3515 -2.76269 14.4128
-1.32794 -2.76303 14.4199
-1.30436 -2.76337 14.427
-1.28076 -2.76372 14.434
-1.23353 -2.76441 14.4481
-1.18572 -2.76375 14.4546
-1.16206 -2.76409 14.4616
-1.11373 -2.76209 14.4607
-1.08481 -2.75501 14.4425
-0.992585 -2.75576 14.4512
-0.968898 -2.7561 14.4579
-0.920272 -2.75278 14.4497
-0.896575 -2.75312 14.4564
-0.843126 -2.74459 14.4392
-0.818246 -2.7431 14.4398
-0.770342 -2.74179 14.4424
-0.702783 -2.73989 14.4234
-0.651248 -2.74153 14.4645
-0.608171 -2.74259 14.4564
-0.58415 -2.74161 14.4557
-0.560383 -2.74195 14.4621
-0.536364 -2.74097 14.4614
-0.508578 -2.73533 14.4512
-0.480837 -2.7297 14.441
-0.458953 -2.73237 14.4521
-0.435177 -2.73271 14.4584
-0.416939 -2.74002 14.4787
-0.385571 -2.72976 14.4593
-0.361281 -2.72615 14.4445
-0.337965 -2.73044 14.4717
-0.314142 -2.73078 14.4779
-0.290171 -2.72981 14.477
-0.266458 -2.73147 14.4901
-0.242596 -2.73181 14.4962
-0.154105 -2.74372 14.545
-0.124424 -2.73403 14.5227
-0.0752113 -2.73417 14.5378
-0.0511378 -2.73056 14.5229
-0.0272753 -2.73483 14.5493
-0.00328904 -2.73517 14.5551
0.020701 -2.73681 14.5677
0.0447195 -2.73583 14.5665
0.0687525 -2.73747 14.579
0.0927755 -2.73649 14.5777
0.140995 -2.74108 14.6093
0.160234 -2.75027 14.6379
0.23815 -2.7542 14.6923
0.262377 -2.75452 14.6976
0.286616 -2.75483 14.7029
0.310865 -2.75515 14.7081
0.391481 -2.76138 14.7814
0.438155 -2.76318 14.7883
0.461323 -2.76559 14.7979
0.513632 -2.77531 14.8636
0.617767 -2.72723 14.5947
0.645823 -2.7282 14.6182
0.69395 -2.72753 14.6215
0.726378 -2.73044 14.67
0.895554 -2.76113 14.8167
1.03184 -2.78224 14.9677
1.0596 -2.79302 15.0245
1.11036 -2.79752 15.0523
1.19381 -2.8155 15.162
1.24391 -2.82655 15.2096
1.42184 -2.87747 15.5064
2.20473 -3.17535 17.1178
2.2338 -3.17832 17.1322
-5.20655 -3.29783 16.5246
-4.92688 -3.22117 16.1681
-4.37108 -3.09015 15.5695
-4.29509 -3.0733 15.5121
-4.2045 -3.06049 15.4246
-4.08458 -3.03014 15.3245
-4.01723 -3.01761 15.2779
-3.89111 -2.9955 15.1575
-3.85443 -2.98797 15.1493
-3.76302 -2.97386 15.0847
-3.60191 -2.94389 14.9699
-3.57431 -2.94122 14.9603
-3.51265 -2.93007 14.9074
-3.33938 -2.90556 14.8009
-3.27438 -2.89286 14.7695
-3.18622 -2.87795 14.7012
-3.16239 -2.87822 14.7087
-3.13418 -2.87422 14.6915
-3.1003 -2.86681 14.6774
-3.07176 -2.86312 14.6696
-3.048 -2.8634 14.6772
-2.93648 -2.84757 14.61
-2.9128 -2.84786 14.6175
-2.88911 -2.84815 14.6251
-2.8325 -2.83888 14.5837
-2.78265 -2.83666 14.5829
-2.75519 -2.83276 14.5664
-2.73156 -2.83305 14.5739
-2.70667 -2.83195 14.5735
-2.64721 -2.82251 14.5617
-2.6236 -2.82281 14.5694
-2.55524 -2.82257 14.5551
-2.52814 -2.8187 14.5388
-2.50453 -2.81901 14.5463
-2.47977 -2.81792 14.546
-2.44453 -2.80828 14.5275
-2.41874 -2.80582 14.5193
-2.34693 -2.80538 14.5342
-2.32016 -2.80154 14.5182
-2.21971 -2.79453 14.5015
-2.16666 -2.78692 14.47
-2.14313 -2.78724 14.4775
-2.11959 -2.78757 14.485
-2.06685 -2.77999 14.4536
-2.01587 -2.77595 14.4483
-1.94386 -2.77342 14.4449
-1.88568 -2.76299 14.4283
-1.8622 -2.76333 14.4358
-1.83622 -2.75959 14.4204
-1.81607 -2.7637 14.4413
-1.68602 -2.74537 14.3744
-1.66481 -2.74975 14.4043
-1.63912 -2.74604 14.3891
-1.61878 -2.75013 14.4097
-1.57469 -2.74991 14.3962
-1.54515 -2.7474 14.4185
-1.44707 -2.74068 14.4027
-1.42354 -2.74102 14.4099
-1.4 -2.74136 14.4171
-1.37401 -2.73634 14.3947
-1.35048 -2.73668 14.4018
-1.32576 -2.73434 14.3942
-1.30396 -2.73871 14.4235
-1.27981 -2.73771 14.4232
-1.23317 -2.73973 14.4447
-1.16071 -2.73674 14.4436
-1.1043 -2.72662 14.4292
-0.991442 -2.72846 14.4336
-0.967788 -2.72881 14.4404
-0.942457 -2.72383 14.4182
-0.919625 -2.72683 14.4395
-0.768323 -2.71554 14.4381
-0.702607 -2.71535 14.4206
-0.679218 -2.71701 14.4342
-0.655505 -2.71735 14.4408
-0.583763 -2.71573 14.446
-0.558108 -2.71375 14.4476
-0.535776 -2.71378 14.4447
-0.504472 -2.70483 14.4321
-0.458242 -2.7039 14.4285
-0.433044 -2.70455 14.4442
-0.385331 -2.70392 14.4498
-0.339424 -2.7056 14.46
-0.313957 -2.70494 14.4686
-0.289866 -2.70266 14.4608
-0.266436 -2.70693 14.4879
-0.20111 -2.70669 14.4686
-0.177351 -2.70833 14.4815
-0.153479 -2.70867 14.4875
-0.129526 -2.70769 14.4865
-0.0784947 -2.70898 14.517
-0.0322614 -2.70933 14.5193
-0.00334637 -2.7106 14.5532
0.0686651 -2.71159 14.5704
0.0926928 -2.71191 14.576
0.116732 -2.71224 14.5816
0.140784 -2.71256 14.5872
0.164847 -2.71289 14.5927
0.18909 -2.71712 14.6187
0.206568 -2.72399 14.6275
0.235134 -2.72822 14.6717
0.263511 -2.72774 14.6915
0.286564 -2.73146 14.7083
0.644947 -2.6998 14.5972
0.694264 -2.70558 14.6335
0.794312 -2.72099 14.7252
0.818955 -2.72258 14.7365
0.852145 -2.72677 14.7917
0.876582 -2.72706 14.7962
0.894664 -2.73382 14.8028
0.921128 -2.7419 14.8468
0.99798 -2.75445 14.919
1.08487 -2.77099 15.0416
1.11127 -2.77649 15.072
1.16432 -2.78752 15.1325
1.24494 -2.80539 15.2296
2.13862 -3.1279 17.0217
2.23257 -3.14974 17.1287
-5.22629 -3.24967 16.4211
-4.92586 -3.19376 16.1643
-4.8122 -3.17029 16.0423
-4.71177 -3.13864 15.8969
-4.6607 -3.12276 15.8387
-4.35049 -3.05064 15.5115
-4.29382 -3.04676 15.5074
-4.12468 -3.01451 15.3464
-4.07747 -2.99936 15.2932
-4.00587 -2.9845 15.2475
-3.81173 -2.94946 15.0921
-3.75221 -2.94114 15.0551
-3.67103 -2.93398 15.0156
-3.6289 -2.92022 14.9561
-3.59891 -2.91666 14.9563
-3.57301 -2.91545 14.9551
-3.54546 -2.9128 14.9456
-3.50567 -2.90059 14.8953
-3.39079 -2.88381 14.8059
-3.36838 -2.8855 14.8216
-3.33106 -2.87486 14.7808
-3.27313 -2.86738 14.7643
-3.1858 -2.85201 14.6775
-3.16116 -2.85283 14.7035
-3.09573 -2.83892 14.665
-3.06913 -2.83638 14.6563
-3.03734 -2.83017 14.6414
-2.99707 -2.83331 14.6259
-2.96035 -2.82346 14.6053
-2.93533 -2.82235 14.6048
-2.91031 -2.82123 14.6043
-2.88665 -2.82152 14.612
-2.83078 -2.81238 14.5649
-2.77771 -2.80733 14.5538
-2.75794 -2.81179 14.5855
-2.72306 -2.80151 14.5474
-2.70688 -2.8082 14.5766
-2.67466 -2.80072 14.5547
-2.6468 -2.79713 14.5477
-2.61899 -2.79355 14.5407
-2.52717 -2.79365 14.534
-2.50358 -2.79395 14.5416
-2.47592 -2.79039 14.5347
-2.41673 -2.77944 14.5068
-2.39649 -2.78387 14.5381
-2.36855 -2.77868 14.5142
-2.34215 -2.77653 14.5154
-2.266 -2.77046 14.4992
-2.21587 -2.76549 14.4737
-2.14235 -2.76234 14.4731
-2.11305 -2.75449 14.4342
-2.08517 -2.7513 14.4372
-2.0661 -2.75513 14.4493
-2.01634 -2.7517 14.4412
-1.93539 -2.74133 14.4227
-1.90761 -2.73653 14.409
-1.88247 -2.73416 14.4013
-1.85903 -2.73449 14.4088
-1.81891 -2.7394 14.4168
-1.76036 -2.72773 14.3932
-1.73379 -2.7227 14.3704
-1.66544 -2.72561 14.3974
-1.61918 -2.72513 14.3964
-1.57486 -2.72656 14.3998
-1.54661 -2.72212 14.3959
-1.51704 -2.715 14.3771
-1.49157 -2.71134 14.3621
-1.47012 -2.71385 14.3753
-1.4453 -2.71335 14.3841
-1.42118 -2.71235 14.384
-1.39768 -2.71269 14.3912
-1.37234 -2.70903 14.3762
-1.35065 -2.71337 14.4056
-1.32652 -2.71237 14.4054
-1.30356 -2.71404 14.42
-1.27942 -2.71305 14.4197
-1.2274 -2.70675 14.4077
-1.1834 -2.70605 14.3914
-1.13373 -2.70446 14.4033
-1.11015 -2.7048 14.4103
-1.08559 -2.70249 14.4027
-1.03795 -2.70185 14.4093
-0.967096 -2.70287 14.43
-0.94303 -2.70189 14.4296
-0.918565 -2.69959 14.4219
-0.892933 -2.6987 14.4313
-0.84458 -2.69008 14.3846
-0.767792 -2.68965 14.4281
-0.699507 -2.68566 14.399
-0.670023 -2.67792 14.3835
-0.652655 -2.68926 14.4292
-0.607628 -2.69216 14.4439
-0.58363 -2.69118 14.4433
-0.55508 -2.68166 14.4119
-0.529398 -2.68079 14.4212
-0.504136 -2.67901 14.4225
-0.459591 -2.6791 14.4166
-0.431769 -2.67222 14.3996
-0.407511 -2.66866 14.385
-0.383477 -2.66641 14.3774
-0.359807 -2.66675 14.3838
-0.33922 -2.67233 14.4059
-0.315496 -2.67267 14.4122
-0.288994 -2.67036 14.4167
-0.267242 -2.6719 14.42
-0.241135 -2.66715 14.4083
-0.224808 -2.68056 14.4533
-0.197364 -2.67501 14.4435
-0.174244 -2.676 14.45
-0.148331 -2.67358 14.4507
-0.125913 -2.67601 14.4617
-0.0985526 -2.67046 14.4519
-0.0782147 -2.67667 14.4736
-0.0508823 -2.67113 14.4639
-0.0304661 -2.67733 14.4854
-0.00732764 -2.68297 14.5164
0.0206921 -2.67471 14.4953
0.0395625 -2.68383 14.5244
0.0645333 -2.68395 14.5337
0.0926121 -2.68734 14.5742
0.116646 -2.68766 14.5799
0.140691 -2.68799 14.5855
0.164611 -2.68442 14.5706
0.188817 -2.68863 14.5966
0.212898 -2.68895 14.6021
0.237125 -2.6916 14.6198
0.26822 -2.69082 14.6506
0.38178 -2.69117 14.6398
0.433345 -2.70158 14.7101
0.462773 -2.70111 14.7334
0.524553 -2.67631 14.5838
0.547687 -2.67997 14.6001
0.572386 -2.67436 14.5808
0.645464 -2.67914 14.6159
0.66964 -2.67945 14.6208
0.696281 -2.67269 14.6048
0.72582 -2.68052 14.664
0.750226 -2.6816 14.6729
0.774488 -2.6819 14.6777
0.798759 -2.6822 14.6825
0.819893 -2.69614 14.7325
0.852086 -2.69615 14.7667
0.875715 -2.69979 14.7823
0.901896 -2.69911 14.7896
0.927912 -2.71326 14.8573
0.952787 -2.71484 14.8683
0.977337 -2.71513 14.8727
1.00407 -2.72316 14.9165
1.03648 -2.72554 14.9587
1.05991 -2.73214 14.9834
1.0858 -2.73631 15.0074
1.11519 -2.7381 15.0347
1.14298 -2.7479 15.0872
1.16635 -2.75663 15.1184
1.19383 -2.76472 15.162
1.24914 -2.78094 15.2489
1.33319 -2.79866 15.3545
1.38969 -2.81051 15.4247
1.41807 -2.81868 15.4678
2.23304 -3.11491 17.1107
-4.78794 -3.12731 15.9449
-4.65502 -3.09267 15.8159
-4.55467 -3.06022 15.6645
-4.47525 -3.05542 15.5924
-4.33647 -3.0153 15.462
-4.27082 -3.00468 15.418
-4.13153 -2.97715 15.3006
-4.05325 -2.95708 15.2175
-3.99123 -2.948 15.1815
-3.86156 -2.92397 15.0628
-3.81277 -2.92443 15.0772
-3.74138 -2.9085 15.0253
-3.58706 -2.88253 14.9094
-3.55181 -2.87495 14.8935
-3.49256 -2.86509 14.8373
-3.37757 -2.84884 14.7605
-3.34975 -2.84679 14.7698
-3.3196 -2.84138 14.744
-3.25459 -2.82806 14.7022
-3.1739 -2.81927 14.6596
-3.13603 -2.80746 14.6118
-3.09351 -2.81194 14.6424
-3.06935 -2.81248 14.6593
-3.02791 -2.79768 14.6032
-2.98558 -2.80074 14.6088
-2.9564 -2.79546 14.5839
-2.92496 -2.78932 14.5695
-2.89224 -2.78181 14.547
-2.8687 -2.7821 14.5548
-2.82264 -2.78215 14.5518
-2.77531 -2.78082 14.5407
-2.73988 -2.77087 14.5119
-2.71329 -2.76867 14.5129
-2.68854 -2.76759 14.5126
-2.66503 -2.76789 14.5203
-2.64151 -2.76818 14.5281
-2.61798 -2.76848 14.5358
-2.51386 -2.75707 14.4858
-2.48744 -2.7549 14.4869
-2.46082 -2.75355 14.5005
-2.3956 -2.75885 14.5335
-2.36086 -2.74741 14.4888
-2.33061 -2.74145 14.4759
-2.2886 -2.74372 14.4697
-2.26199 -2.73996 14.4539
-2.21504 -2.74058 14.4692
-2.11226 -2.72965 14.4297
-2.05655 -2.72327 14.4359
-2.0014 -2.71181 14.3819
-1.93122 -2.71278 14.4048
-1.88179 -2.7094 14.397
-1.85331 -2.7017 14.3589
-1.8041 -2.69836 14.3512
-1.73159 -2.69534 14.3512
-1.70821 -2.69567 14.3587
-1.65777 -2.6912 14.3498
-1.608 -2.68504 14.321
-1.56127 -2.68571 14.336
-1.53857 -2.68737 14.3509
-1.51447 -2.68638 14.3508
-1.49172 -2.68804 14.3657
-1.46762 -2.68705 14.3656
-1.44417 -2.68738 14.3729
-1.42071 -2.68771 14.3802
-1.39722 -2.68805 14.3875
-1.31636 -2.67404 14.3486
-1.2901 -2.67071 14.3431
-1.2678 -2.67368 14.3651
-1.22361 -2.67512 14.3682
-1.17941 -2.67655 14.3711
-1.15538 -2.67557 14.3709
-1.13186 -2.67591 14.378
-1.10651 -2.67411 14.3794
-1.08177 -2.67302 14.3827
-1.05223 -2.66624 14.3711
-1.02911 -2.66479 14.3619
-1.00427 -2.6643 14.3706
-0.939405 -2.66681 14.3685
-0.891479 -2.66487 14.3678
-0.843959 -2.66425 14.3744
-0.764842 -2.65467 14.3678
-0.741267 -2.65501 14.3746
-0.717677 -2.65535 14.3814
-0.692818 -2.6505 14.3596
-0.669543 -2.65214 14.3735
-0.64594 -2.65248 14.3802
-0.623171 -2.65671 14.4082
-0.555203 -2.65104 14.368
-0.529121 -2.65389 14.4039
-0.503331 -2.65062 14.3986
-0.45822 -2.64685 14.3718
-0.434571 -2.64719 14.3782
-0.407032 -2.64164 14.3684
-0.383205 -2.64069 14.3679
-0.359554 -2.64103 14.3743
-0.335889 -2.64137 14.3807
-0.31221 -2.64171 14.3871
-0.288517 -2.64204 14.3934
-0.264811 -2.64238 14.3997
-0.241092 -2.64271 14.406
-0.169032 -2.63217 14.3624
-0.145591 -2.63635 14.3893
-0.122222 -2.6431 14.4299
-0.098433 -2.64343 14.436
-0.0746839 -2.64505 14.4489
-0.0507317 -2.64152 14.4343
-0.0269882 -2.64442 14.454
-0.00317165 -2.64603 14.4669
0.0206911 -2.64636 14.4728
0.0445665 -2.64669 14.4786
0.0684543 -2.64702 14.4845
0.0923981 -2.65119 14.5108
0.116292 -2.64895 14.5029
0.164129 -2.64832 14.5075
0.188395 -2.65634 14.554
