-0.159612 -3.9007 18.9426
-0.129933 -3.8943 18.9333
-0.108749 -3.89121 18.9067
-0.0873429 -3.89976 18.9388
-0.0636562 -3.89736 18.9257
-0.0418623 -3.90118 18.9356
-0.017703 -3.90199 18.9401
0.0051985 -3.9043 18.9468
0.028503 -3.91007 18.9718
0.0528198 -3.90904 18.9678
0.0750306 -3.91977 19.0119
0.0950588 -3.93836 19.0843
0.12196 -3.95198 19.1591
0.145163 -3.95778 19.1821
0.169473 -3.95683 19.1775
0.191663 -3.96622 19.213
0.217597 -3.96985 19.2357
0.239536 -3.97477 19.249
0.262603 -3.97584 19.2487
0.285486 -3.97599 19.2435
0.31192 -3.98146 19.2758
0.333134 -3.98542 19.2816
0.355632 -3.98374 19.2666
0.453469 -3.98486 19.2712
0.476305 -3.98501 19.2658
0.503987 -3.98198 19.2641
0.527754 -3.9831 19.2664
0.550556 -3.98326 19.261
0.575999 -3.9843 19.2689
0.601885 -3.98492 19.2765
0.627428 -3.9859 19.2843
0.649017 -3.99142 19.2975
0.672928 -3.99095 19.2933
0.69709 -3.99568 19.3119
0.72339 -4.0011 19.3408
0.748695 -4.01032 19.3818
0.774468 -4.02648 19.453
0.80051 -4.04558 19.5366
0.868216 -4.17063 20.1119
0.89382 -4.1766 20.1364
0.919644 -4.17548 20.1325
0.943117 -4.18264 20.1542
0.966737 -4.1827 20.1475
0.996494 -4.17899 20.1465
1.02229 -4.18162 20.1575
1.0473 -4.18454 20.167
1.07252 -4.18516 20.1679
1.09499 -4.18699 20.1644
1.12042 -4.18726 20.1646
1.14674 -4.18826 20.1706
1.17187 -4.18928 20.1728
1.1998 -4.19124 20.1877
1.22581 -4.19723 20.2119
1.2506 -4.20491 20.2382
1.27877 -4.20764 20.2565
1.30234 -4.20769 20.2495
1.32748 -4.20274 20.2285
1.35157 -4.19936 20.2104
1.37385 -4.20004 20.2018
1.40199 -4.19892 20.2052
1.42937 -4.1994 20.2123
1.4569 -4.20375 20.234
1.48684 -4.21536 20.2901
-2.10575 -4.21081 20.5287
-2.08157 -4.21064 20.517
-2.0551 -4.20976 20.514
-2.02727 -4.20802 20.5125
-1.97711 -4.208 20.5033
-1.94696 -4.20557 20.5105
-1.91655 -4.19663 20.4698
-1.897 -4.20008 20.4589
-1.86439 -4.19047 20.427
-1.83535 -4.18789 20.4271
-1.80837 -4.18499 20.4129
-1.78038 -4.18226 20.4058
-1.7283 -4.17729 20.3734
-1.70346 -4.17731 20.3687
-1.67519 -4.17572 20.3719
-1.65056 -4.17741 20.3779
-1.62817 -4.1796 20.375
-1.60014 -4.17737 20.3723
-1.57335 -4.17724 20.3773
-1.46236 -4.0293 19.6862
-1.43017 -4.01462 19.6256
-1.39932 -4.00474 19.5911
-1.37485 -4.002 19.5715
-1.34817 -3.99949 19.5651
-1.32109 -3.9951 19.5485
-1.29696 -3.99332 19.5341
-1.27286 -3.99155 19.5197
-1.24917 -3.99165 19.5155
-1.2255 -3.99176 19.5113
-1.14849 -3.98503 19.4841
-1.12298 -3.98341 19.4784
-1.09938 -3.98353 19.4741
-1.07142 -3.97647 19.4467
-1.04625 -3.9739 19.4338
-1.02394 -3.97391 19.423
-0.997231 -3.96868 19.4014
-0.970462 -3.96253 19.3749
-0.940845 -3.95292 19.3414
-0.910266 -3.9342 19.2582
-0.862412 -3.92173 19.1806
-0.837768 -3.9197 19.1704
-0.810721 -3.91877 19.178
-0.728206 -3.87864 18.9915
-0.706635 -3.87961 18.986
-0.659433 -3.87736 18.9695
-0.636569 -3.87752 18.9654
-0.608306 -3.87271 18.9573
-0.585475 -3.87288 18.9532
-0.562655 -3.87305 18.949
-0.511671 -3.86843 18.9368
-0.443436 -3.86102 18.881
-0.324674 -3.85962 18.8703
-0.279298 -3.86174 18.8711
-0.253663 -3.86562 18.8982
-0.210805 -3.87109 18.9054
-0.184504 -3.87466 18.9331
-0.159599 -3.87446 18.9357
-0.0182489 -3.87329 18.9192
0.00435329 -3.87347 18.9145
0.0271813 -3.87542 18.9194
0.0740288 -3.88727 18.9718
0.0970657 -3.8901 18.9813
0.122202 -3.92488 19.1508
0.142858 -3.93022 19.162
0.168895 -3.93151 19.1747
0.196072 -3.93913 19.2212
0.217379 -3.94185 19.2221
0.625057 -3.9648 19.2943
0.64838 -3.96677 19.2984
0.671437 -3.96784 19.2977
0.696317 -3.9695 19.3059
0.71952 -3.97636 19.3302
0.743469 -3.98017 19.3439
0.769811 -3.99131 19.3966
0.797798 -4.00711 19.474
0.868633 -4.14219 20.1053
0.894228 -4.14813 20.1298
0.916263 -4.1537 20.1402
0.999111 -4.15803 20.1779
1.02346 -4.16007 20.1816
1.04744 -4.16112 20.18
1.07103 -4.16119 20.1732
1.12028 -4.16062 20.1638
1.14617 -4.16228 20.1711
1.17317 -4.16326 20.1793
1.19671 -4.16333 20.1724
1.22477 -4.17422 20.2225
1.25213 -4.18076 20.253
1.27698 -4.18621 20.2709
1.30014 -4.18528 20.2586
1.32283 -4.18336 20.2412
1.35148 -4.17834 20.2314
1.37559 -4.17565 20.2159
1.40154 -4.17542 20.2156
1.42843 -4.17641 20.2229
1.45548 -4.17726 20.2302
1.47959 -4.18542 20.2552
-2.14231 -4.19893 20.5822
-2.10867 -4.1882 20.5443
-2.08311 -4.18717 20.5341
-2.05839 -4.1882 20.5352
-2.03104 -4.187 20.5349
-2.00583 -4.18749 20.5347
-1.98071 -4.18748 20.5301
-1.95296 -4.18596 20.5297
-1.91896 -4.17306 20.4797
-1.89939 -4.17652 20.4688
-1.865 -4.16538 20.4355
-1.83772 -4.16437 20.437
-1.81278 -4.16439 20.4323
-1.78477 -4.16166 20.4252
-1.75844 -4.15934 20.4115
-1.73196 -4.15576 20.3896
-1.70668 -4.15584 20.3878
-1.67952 -4.15408 20.3834
-1.65356 -4.15533 20.3936
-1.63045 -4.15615 20.3849
-1.60356 -4.15489 20.3825
-1.51708 -4.02353 19.7979
-1.4984 -4.02698 19.7877
-1.46487 -4.00565 19.687
-1.43118 -3.99122 19.6358
-1.40139 -3.98205 19.6001
-1.37628 -3.98055 19.592
-1.352 -3.97954 19.5829
-1.32468 -3.97423 19.5611
-1.29918 -3.97163 19.5482
-1.27526 -3.97081 19.5388
-1.25175 -3.97185 19.5398
-1.22786 -3.97103 19.5304
-1.20417 -3.97114 19.5262
-1.17546 -3.96981 19.5381
-1.15078 -3.96433 19.5032
-1.12695 -3.96333 19.4928
-1.10187 -3.96187 19.4859
-1.07946 -3.96189 19.475
-1.04816 -3.9514 19.4427
-1.02597 -3.95235 19.4369
-1.00072 -3.94888 19.4189
-0.971258 -3.93943 19.385
-0.94551 -3.93307 19.3523
-0.914786 -3.91351 19.2641
-0.88791 -3.90386 19.2181
-0.864215 -3.89948 19.1892
-0.839891 -3.89826 19.1822
-0.8164 -3.89762 19.1749
-0.758884 -3.86852 19.0469
-0.729813 -3.85481 18.9903
-0.708949 -3.85686 18.9877
-0.683048 -3.85628 18.9929
-0.661222 -3.8571 18.9876
-0.63597 -3.85413 18.9763
-0.612692 -3.85319 18.9677
-0.589171 -3.85274 18.9631
-0.56429 -3.85 18.9517
-0.539956 -3.84981 18.9521
-0.514671 -3.849 18.9534
-0.491873 -3.84919 18.9491
-0.467758 -3.84154 18.908
-0.446368 -3.84165 18.8975
-0.422339 -3.83928 18.8852
-0.397872 -3.83782 18.8797
-0.373572 -3.83919 18.8887
-0.348904 -3.83753 18.883
-0.327084 -3.83942 18.8841
-0.30346 -3.84053 18.8886
-0.280717 -3.8423 18.8928
-0.257067 -3.84584 18.91
-0.234891 -3.85073 18.9279
-0.211053 -3.85134 18.9303
-0.186531 -3.85347 18.9434
-0.162117 -3.85403 18.9479
-0.138433 -3.8527 18.9398
-0.114771 -3.85138 18.9317
-0.0919418 -3.85053 18.9227
-0.0694851 -3.85176 18.9226
-0.045818 -3.85097 18.9173
-0.0216525 -3.85321 18.929
0.00324649 -3.85419 18.9374
0.0258619 -3.85438 18.9327
0.0509933 -3.85734 18.9515
0.0726037 -3.8653 18.9804
0.0952578 -3.87111 19.0027
0.118414 -3.89729 19.1243
0.141439 -3.90809 19.1709
0.166797 -3.90976 19.1828
0.191348 -3.91291 19.1984
0.214953 -3.91959 19.2268
0.237798 -3.92776 19.259
0.624604 -3.9453 19.3181
0.64742 -3.94546 19.3125
0.67071 -3.94726 19.3157
0.695517 -3.95092 19.3322
0.719171 -3.95684 19.3541
0.744797 -3.96322 19.3846
0.772143 -3.9716 19.4293
0.79662 -3.98474 19.4835
0.828299 -4.01096 19.6169
0.867437 -4.11923 20.1156
0.893041 -4.12515 20.1401
0.917666 -4.13211 20.1652
0.944072 -4.13606 20.184
0.968074 -4.13711 20.1824
0.995377 -4.13757 20.1899
1.02144 -4.13847 20.1947
1.04632 -4.13811 20.1905
1.07313 -4.13908 20.1981
1.09466 -4.1412 20.1925
1.12083 -4.13873 20.1842
1.14688 -4.13963 20.189
1.17103 -4.14202 20.1931
1.1977 -4.14523 20.2089
1.22373 -4.15119 20.2331
1.25014 -4.1579 20.2612
1.27639 -4.16412 20.2867
1.3 -4.16419 20.2797
1.32874 -4.16198 20.2807
1.35316 -4.16121 20.2732
1.37462 -4.15264 20.2265
1.40083 -4.1534 20.2307
1.42878 -4.15297 20.2362
1.45561 -4.15535 20.2484
1.48408 -4.16575 20.2958
-2.1422 -4.16905 20.5582
-2.11225 -4.16523 20.553
-2.08349 -4.16167 20.5424
-2.05888 -4.16214 20.5382
-2.02963 -4.15866 20.5316
-2.00017 -4.15535 20.5276
-1.97956 -4.15986 20.5308
-1.9523 -4.15826 20.5268
-1.91713 -4.14367 20.4704
-1.89621 -4.14583 20.4576
-1.86398 -4.13841 20.4395
-1.83544 -4.13513 20.4313
-1.80926 -4.13397 20.4251
-1.78435 -4.134 20.4204
-1.75763 -4.13088 20.403
-1.73103 -4.12894 20.3938
-1.70495 -4.12788 20.3881
-1.67557 -4.12308 20.3742
-1.65103 -4.12569 20.3865
-1.62577 -4.12422 20.3735
-1.6041 -4.12931 20.387
-1.50912 -3.98016 19.7185
-1.48261 -3.97082 19.6623
-1.45593 -3.96605 19.6393
-1.42926 -3.96193 19.6212
-1.40045 -3.9551 19.5961
-1.37543 -3.95287 19.5825
-1.35165 -3.95298 19.5783
-1.32494 -3.94887 19.5613
-1.29828 -3.94477 19.5442
-1.27398 -3.94372 19.5353
-1.2497 -3.94268 19.5265
-1.22602 -3.9428 19.5223
-1.20235 -3.94292 19.518
-1.17685 -3.94158 19.5137
-1.14904 -3.93453 19.4845
-1.12453 -3.9341 19.4812
-1.09479 -3.9288 19.4732
-1.07526 -3.93141 19.4645
-1.04749 -3.92535 19.4422
-1.02394 -3.92307 19.423
-0.996191 -3.91576 19.3934
-0.970639 -3.91209 19.3759
-0.939918 -3.89102 19.277
-0.912643 -3.87871 19.2161
-0.886036 -3.87095 19.1802
-0.862468 -3.87074 19.1758
-0.836671 -3.86606 19.1551
-0.81492 -3.86748 19.1519
-0.781548 -3.84162 19.042
-0.757542 -3.83948 19.0291
-0.728507 -3.82084 18.9432
-0.706242 -3.82249 18.945
-0.680913 -3.82123 18.9439
-0.65894 -3.82471 18.9549
-0.633764 -3.82042 18.9358
-0.611564 -3.82604 18.9598
-0.585611 -3.81803 18.9233
-0.562235 -3.8199 18.9313
-0.53945 -3.82009 18.9271
-0.515868 -3.82011 18.9255
-0.489879 -3.81428 18.9023
-0.466327 -3.81154 18.8856
-0.444004 -3.81208 18.8817
-0.418686 -3.80721 18.8613
-0.394296 -3.80374 18.8447
-0.372337 -3.80931 18.8664
-0.348001 -3.80794 18.861
-0.322404 -3.80291 18.8415
-0.301231 -3.81101 18.8729
-0.279844 -3.81374 18.8766
-0.253997 -3.81391 18.8856
-0.231439 -3.8195 18.9089
-0.209616 -3.8211 18.9083
-0.186456 -3.823 18.9147
-0.159831 -3.81885 18.9044
-0.135643 -3.81539 18.8877
-0.113041 -3.81559 18.8832
-0.0894074 -3.81481 18.878
-0.0660243 -3.81713 18.8874
-0.0439033 -3.82001 18.8944
-0.0202869 -3.82147 18.9002
0.00469363 -3.8224 18.9089
0.0266662 -3.82738 18.9254
0.0507751 -3.82885 18.9329
0.0752874 -3.83115 18.946
0.0962179 -3.83976 18.9755
0.120904 -3.84943 19.0245
0.143039 -3.87334 19.1312
0.16763 -3.88134 19.1706
0.193562 -3.88123 19.1763
0.214552 -3.88951 19.2025
0.239983 -3.89131 19.215
0.262419 -3.89795 19.2385
0.287901 -3.89884 19.2467
0.603847 -3.91164 19.2957
0.625276 -3.91676 19.3068
0.647805 -3.91918 19.31
0.67114 -3.91958 19.3074
0.695497 -3.92701 19.3386
0.720509 -3.92857 19.3468
0.744702 -3.93238 19.3615
0.77191 -3.94143 19.4089
0.796594 -3.9568 19.4737
0.823709 -3.96827 19.53
0.887722 -4.08006 20.0443
0.918628 -4.10485 20.1656
0.944885 -4.10732 20.1778
0.971246 -4.10659 20.1772
0.997981 -4.11085 20.1982
1.02238 -4.11339 20.204
1.04646 -4.11464 20.2035
1.07253 -4.11554 20.2083
1.09801 -4.11581 20.2086
1.12161 -4.1159 20.2018
1.14787 -4.11458 20.1983
1.17192 -4.11583 20.1977
1.19768 -4.11888 20.2098
1.22402 -4.12267 20.2267
1.25265 -4.13166 20.2713
1.27726 -4.13859 20.2942
1.30315 -4.13617 20.285
1.32884 -4.13526 20.281
1.35469 -4.13137 20.2662
1.37871 -4.12843 20.2491
1.40329 -4.12681 20.239
1.43007 -4.12514 20.2358
1.45462 -4.13021 20.251
1.48567 -4.13891 20.3005
-2.11364 -4.14084 20.5642
-2.08491 -4.13707 20.5514
-2.03272 -4.13739 20.5567
-2.00759 -4.1374 20.5521
-1.98247 -4.13742 20.5475
-1.95035 -4.12989 20.5266
-1.89341 -4.11707 20.4588
-1.86943 -4.11695 20.447
-1.8342 -4.10891 20.4422
-1.80857 -4.10694 20.4265
-1.78366 -4.10697 20.4218
-1.75876 -4.107 20.4172
-1.73354 -4.10604 20.4069
-1.70834 -4.10507 20.3967
-1.68075 -4.10338 20.3951
-1.65287 -4.1007 20.3881
-1.62303 -4.09517 20.3715
-1.48522 -3.94991 19.6817
-1.45394 -3.93918 19.6418
-1.42911 -3.93557 19.617
-1.40189 -3.93122 19.6003
-1.37517 -3.92873 19.5939
-1.35094 -3.927 19.5795
-1.32675 -3.92527 19.565
-1.2997 -3.92095 19.5484
-1.27309 -3.91848 19.5421
-1.249 -3.91676 19.5276
-1.22532 -3.91689 19.5235
-1.20147 -3.9161 19.5141
-1.17638 -3.91494 19.5088
-1.14796 -3.90845 19.4861
-1.12435 -3.90858 19.4819
-1.09552 -3.90632 19.4886
-1.07718 -3.90885 19.4734
-1.05317 -3.90624 19.4538
-1.02357 -3.89851 19.4302
-0.996463 -3.89062 19.3936
-0.968486 -3.87554 19.3169
-0.937361 -3.85355 19.214
-0.912582 -3.85111 19.2014
-0.884759 -3.84348 19.172
-0.860073 -3.84105 19.1594
-0.832129 -3.8308 19.1154
-0.809397 -3.82563 19.0777
-0.779137 -3.8103 19.0153
-0.755643 -3.80349 18.9724
-0.728322 -3.79515 18.9389
-0.704039 -3.7928 18.9267
-0.68122 -3.79299 18.9226
-0.658412 -3.79319 18.9186
-0.633378 -3.79311 18.9231
-0.610131 -3.7911 18.9085
-0.587356 -3.79129 18.9044
-0.560133 -3.78823 18.9019
-0.539245 -3.79354 18.9182
-0.515136 -3.79207 18.9107
-0.489697 -3.7872 18.8903
-0.46565 -3.78488 18.878
-0.440844 -3.78053 18.858
-0.416813 -3.77598 18.8338
-0.392401 -3.77541 18.8332
-0.36976 -3.77647 18.8337
-0.347178 -3.77582 18.8248
-0.322241 -3.77577 18.8291
-0.300041 -3.7789 18.8388
-0.277041 -3.78235 18.8534
-0.253887 -3.78672 18.8733
-0.228096 -3.78659 18.8805
-0.206502 -3.78812 18.8787
-0.1828 -3.78787 18.8765
-0.160198 -3.78808 18.8721
-0.137608 -3.78829 18.8676
-0.115029 -3.7885 18.8632
-0.0913647 -3.78825 18.8609
-0.0670167 -3.78906 18.8667
-0.0426613 -3.78987 18.8726
-0.018815 -3.79117 18.8787
0.00454494 -3.7976 18.9083
0.0272633 -3.79884 18.9094
0.0511675 -3.80015 18.9155
0.0730105 -3.80341 18.9229
0.0965481 -3.80986 18.9525
0.121331 -3.82363 19.0222
0.141179 -3.84293 19.0984
0.165729 -3.85108 19.1387
0.191614 -3.85407 19.1592
0.216358 -3.85491 19.1648
0.240496 -3.86028 19.1895
0.261045 -3.87574 19.2476
0.284462 -3.87859 19.257
0.60286 -3.89029 19.3097
0.626452 -3.89316 19.3189
0.649264 -3.89335 19.3134
0.672423 -3.90013 19.3378
0.696158 -3.90222 19.3437
0.720439 -3.90286 19.3453
0.745906 -3.9113 19.3845
0.769807 -3.91472 19.3964
0.796267 -3.92574 19.4494
0.821763 -3.93689 19.4991
0.850199 -3.95757 19.5987
0.890873 -4.05961 20.0801
0.918306 -4.07921 20.1681
0.946246 -4.08292 20.1914
0.969898 -4.08302 20.1848
0.995683 -4.08892 20.2093
1.02173 -4.09065 20.2175
1.04778 -4.09238 20.2256
1.07329 -4.09265 20.2259
1.0984 -4.09196 20.221
1.12201 -4.09206 20.2141
1.14561 -4.09216 20.2073
1.17086 -4.09279 20.2082
1.19767 -4.09415 20.2172
1.2268 -4.09996 20.2514
1.2501 -4.10618 20.2675
1.28036 -4.11475 20.3158
1.30399 -4.11484 20.3087
1.33275 -4.10983 20.2988
1.35544 -4.10799 20.2813
1.3781 -4.10614 20.2639
1.40071 -4.1043 20.2464
1.42815 -4.10477 20.2535
1.45654 -4.10718 20.271
1.48051 -4.10825 20.2691
-2.14671 -4.12196 20.5837
-2.11791 -4.11902 20.5781
-2.08729 -4.11523 20.5772
-2.06347 -4.11643 20.5737
-2.03656 -4.11492 20.5677
-2.0069 -4.11096 20.5595
-1.98256 -4.11224 20.5601
-1.95386 -4.10693 20.5353
-1.92306 -4.09948 20.5069
-1.89343 -4.09275 20.4774
-1.86644 -4.09016 20.4646
-1.83891 -4.08683 20.4494
-1.81201 -4.08408 20.435
-1.78599 -4.08342 20.4317
-1.76278 -4.08533 20.431
-1.73585 -4.08251 20.4168
-1.70955 -4.08086 20.4078
-1.68039 -4.07735 20.4017
-1.64787 -4.06951 20.3834
-1.53089 -3.92722 19.7257
-1.51794 -3.93502 19.715
-1.4847 -3.9216 19.6661
-1.4566 -3.91522 19.6392
-1.4301 -3.91215 19.6271
-1.40333 -3.90733 19.6045
-1.37654 -3.90325 19.5874
-1.35097 -3.9007 19.5744
-1.32544 -3.89815 19.5614
-1.30112 -3.89712 19.5526
-1.27576 -3.89465 19.5395
-1.25206 -3.89479 19.5353
-1.22837 -3.89492 19.5312
-1.20059 -3.8893 19.5102
-1.17665 -3.88966 19.509
-1.15404 -3.89111 19.508
-1.12747 -3.88591 19.4842
-1.09745 -3.88372 19.4975
-1.07909 -3.88627 19.4822
-1.04766 -3.87631 19.453
-1.01899 -3.86543 19.4045
-0.990009 -3.84414 19.2927
-0.959777 -3.827 19.2143
-0.935049 -3.82461 19.2017
-0.907633 -3.81729 19.1717
-0.882996 -3.81492 19.1592
-0.861721 -3.81747 19.1606
-0.831287 -3.79814 19.073
-0.80659 -3.79051 19.0298
-0.780201 -3.78037 18.98
-0.753404 -3.77406 18.9556
-0.72712 -3.76805 18.9308
-0.70285 -3.76572 18.9186
-0.680045 -3.76592 18.9146
-0.656317 -3.76472 18.9067
-0.630718 -3.75987 18.8863
-0.607169 -3.75896 18.8795
-0.582297 -3.75565 18.865
-0.55964 -3.75791 18.8724
-0.534254 -3.75617 18.8693
-0.510362 -3.75783 18.8787
-0.486502 -3.75514 18.8635
-0.460874 -3.74113 18.7933
-0.441103 -3.74647 18.8051
-0.41764 -3.74445 18.7924
-0.395315 -3.74692 18.7996
-0.369413 -3.74511 18.7988
-0.345824 -3.74785 18.8127
-0.31958 -3.74013 18.7815
-0.29908 -3.7452 18.7946
-0.275968 -3.74459 18.7884
-0.25313 -3.74991 18.8125
-0.23126 -3.75674 18.8402
-0.206286 -3.75145 18.817
-0.181836 -3.75188 18.8218
-0.156119 -3.74472 18.7924
-0.132093 -3.74656 18.8028
-0.109435 -3.75159 18.8238
-0.0877298 -3.7532 18.8231
-0.0626528 -3.74788 18.801
-0.043986 -3.75924 18.8374
-0.0186492 -3.75887 18.8414
0.00452693 -3.76422 18.8653
0.0275826 -3.76829 18.8821
0.0504871 -3.77335 18.903
0.0736072 -3.77516 18.9084
0.0966489 -3.78231 18.9397
0.12021 -3.79326 18.9913
0.143584 -3.80766 19.0583
0.166286 -3.82052 19.1146
0.189668 -3.82696 19.1421
0.215131 -3.82702 19.1469
0.240997 -3.82739 19.1548
0.26377 -3.8276 19.1498
0.283596 -3.8436 19.2078
0.309998 -3.85453 19.2669
0.333106 -3.85909 19.2829
0.357619 -3.86096 19.2917
0.384186 -3.85994 19.2949
0.407096 -3.86104 19.2939
0.430481 -3.86074 19.2882
0.455361 -3.85993 19.286
0.47829 -3.85689 19.2663
0.503116 -3.8607 19.2847
0.528117 -3.86103 19.2881
0.551175 -3.86211 19.2876
0.575241 -3.86447 19.2964
0.599831 -3.86635 19.3049
0.623573 -3.86974 19.317
0.646003 -3.87305 19.3238
0.670817 -3.87477 19.3321
0.695542 -3.87757 19.3449
0.719568 -3.88159 19.3601
0.745297 -3.88701 19.3874
0.771905 -3.89419 19.4251
0.796187 -3.89657 19.4338
0.821959 -3.91055 19.4968
0.850261 -3.93071 19.5943
0.91802 -4.05171 20.163
0.969808 -4.06284 20.2108
0.997353 -4.06703 20.2344
1.02299 -4.06918 20.2429
1.04852 -4.06946 20.2432
1.07404 -4.06974 20.2435
1.09731 -4.06888 20.2315
1.12132 -4.06995 20.2298
1.14665 -4.06836 20.222
1.17231 -4.07051 20.2303
1.2018 -4.07209 20.2492
1.22592 -4.07966 20.2736
1.25514 -4.08485 20.3054
1.2802 -4.09075 20.3259
1.30446 -4.09024 20.3185
1.32917 -4.08806 20.3062
1.3534 -4.08663 20.2953
1.37834 -4.08241 20.276
1.40283 -4.08242 20.2717
1.42953 -4.08259 20.2752
1.45561 -4.08408 20.2817
1.4847 -4.08991 20.3143
1.5096 -4.09528 20.3314
-2.14143 -4.0931 20.6018
-2.11315 -4.08989 20.5902
-2.08997 -4.09092 20.5809
-2.05964 -4.08719 20.5786
-2.03609 -4.09019 20.5881
-2.0062 -4.08449 20.567
-1.98107 -4.08452 20.5623
-1.95518 -4.08255 20.5464
-1.92159 -4.07108 20.5031
-1.89618 -4.07012 20.4929
-1.86698 -4.06444 20.469
-1.83786 -4.05877 20.4452
-1.81189 -4.05832 20.4429
-1.78696 -4.05899 20.4431
-1.76306 -4.05891 20.4312
-1.73815 -4.05896 20.4265
-1.7109 -4.0562 20.4147
-1.67929 -4.04936 20.3981
-1.53248 -3.90249 19.7242
-1.48308 -3.89341 19.6572
-1.45735 -3.89084 19.6442
-1.40238 -3.88038 19.6004
-1.37678 -3.87785 19.5874
-1.34943 -3.87264 19.5656
-1.32392 -3.87012 19.5527
-1.3002 -3.87026 19.5486
-1.27521 -3.86882 19.5405
-1.25105 -3.86788 19.5315
-1.22564 -3.86537 19.5185
-1.20028 -3.86286 19.5056
-1.1726 -3.86051 19.5059
-1.15184 -3.86323 19.5038
-1.12772 -3.86066 19.4843
-1.06874 -3.84799 19.4521
-1.04713 -3.84803 19.4374
-0.987524 -3.80855 19.2394
-0.955741 -3.79196 19.1718
-0.931118 -3.79228 19.1758
-0.903626 -3.78454 19.1436
-0.88018 -3.77973 19.1102
-0.854881 -3.77319 19.0755
-0.827783 -3.75788 18.9963
-0.801867 -3.753 18.9758
-0.773049 -3.74307 18.9388
-0.749756 -3.74219 18.9304
-0.722453 -3.72824 18.863
-0.69854 -3.72447 18.8409
-0.672594 -3.71944 18.8211
-0.650423 -3.71286 18.7749
-0.630603 -3.72875 18.8495
-0.604755 -3.72434 18.8331
-0.578479 -3.71386 18.7839
-0.554683 -3.71374 18.7833
-0.53131 -3.715 18.7887
-0.507848 -3.71694 18.7983
-0.484338 -3.71354 18.7779
-0.463535 -3.71821 18.7909
-0.438363 -3.70714 18.7352
-0.413932 -3.70725 18.739
-0.390674 -3.70642 18.7324
-0.366064 -3.7047 18.7268
-0.342969 -3.70696 18.7365
-0.319629 -3.70583 18.7287
-0.29716 -3.70606 18.7245
-0.275545 -3.70766 18.7241
-0.249806 -3.70587 18.7232
-0.2263 -3.71078 18.7483
-0.202996 -3.70351 18.708
-0.178185 -3.69882 18.688
-0.154667 -3.69374 18.6608
-0.131081 -3.69438 18.6638
-0.107487 -3.69502 18.6669
-0.0838317 -3.69245 18.6537
-0.0620004 -3.69269 18.6474
-0.03852 -3.69878 18.6778
-0.0167759 -3.71267 18.7402
0.00514011 -3.7247 18.7933
0.0297743 -3.7232 18.789
0.0502623 -3.73704 18.8445
0.076215 -3.74069 18.8709
0.0971625 -3.7513 18.9113
0.12214 -3.7622 18.9688
0.143482 -3.77348 19.0131
0.168211 -3.78463 19.0697
0.192127 -3.79436 19.1156
0.215269 -3.79488 19.1137
0.239028 -3.79686 19.1213
0.263425 -3.79515 19.1136
0.286295 -3.80208 19.1411
0.310909 -3.82477 19.2493
0.333253 -3.83219 19.276
0.355934 -3.83151 19.2659
0.382182 -3.83277 19.2786
0.408035 -3.83227 19.2815
0.430888 -3.83247 19.2762
0.455856 -3.82846 19.2597
0.477722 -3.83121 19.2624
0.502821 -3.83229 19.2697
0.527199 -3.83288 19.2719
0.550579 -3.83519 19.2782
0.575892 -3.83589 19.2844
0.600893 -3.83848 19.2977
0.624071 -3.84443 19.3191
0.647696 -3.84624 19.3237
0.671607 -3.84824 19.3301
0.695788 -3.85461 19.3565
0.720555 -3.85716 19.3681
0.746844 -3.85969 19.385
0.771169 -3.8655 19.4089
0.796655 -3.86905 19.427
0.821075 -3.88115 19.4776
0.849219 -3.89785 19.5604
0.880736 -3.93258 19.7306
0.918689 -4.02355 20.1585
0.946451 -4.03539 20.2154
0.97074 -4.039 20.2255
0.9978 -4.04498 20.2549
1.02371 -4.04622 20.2605
1.04888 -4.04554 20.2556
1.07366 -4.0439 20.2454
1.09621 -4.04577 20.2419
1.12153 -4.04558 20.2396
1.14815 -4.04679 20.2474
1.17503 -4.04775 20.2551
1.20246 -4.0482 20.2624
1.22597 -4.05663 20.2882
1.25471 -4.05997 20.3113
1.28156 -4.06315 20.3271
1.3052 -4.06326 20.3201
1.33074 -4.06022 20.3071
1.35348 -4.06173 20.3026
1.37722 -4.05818 20.2818
1.40437 -4.05624 20.2787
1.43217 -4.05358 20.2749
1.45572 -4.05922 20.2891
1.48266 -4.06239 20.3047
1.50962 -4.06557 20.3203
-2.14393 -4.06933 20.6117
-2.1165 -4.06814 20.6115
-2.09128 -4.06817 20.6069
-2.0621 -4.06344 20.5885
-2.03854 -4.06643 20.598
-2.01362 -4.06644 20.5915
-1.98532 -4.06372 20.5844
-1.94997 -4.05248 20.5529
-1.92474 -4.04941 20.5242
-1.89856 -4.04648 20.5027
-1.87144 -4.04367 20.4884
-1.83919 -4.03529 20.4621
-1.81423 -4.03534 20.4575
-1.78826 -4.03552 20.4601
-1.76332 -4.03557 20.4554
-1.73942 -4.03551 20.4435
-1.71384 -4.03462 20.4356
-1.67949 -4.02514 20.4151
-1.53406 -3.87776 19.7228
-1.48464 -3.86951 19.6612
-1.4581 -3.86646 19.649
-1.42956 -3.85908 19.6173
-1.40311 -3.85605 19.6052
-1.37522 -3.84979 19.5785
-1.35097 -3.84885 19.5696
-1.32464 -3.84584 19.5575
-1.29927 -3.84341 19.5445
-1.2744 -3.84127 19.531
-1.2491 -3.83885 19.5179
-1.22417 -3.83743 19.5098
-1.19882 -3.83495 19.4969
-1.17377 -3.83382 19.4917
-1.15007 -3.83352 19.485
-1.12395 -3.83291 19.4889
-1.09684 -3.82945 19.4791
-1.07632 -3.83053 19.4652
-1.04867 -3.82239 19.4281
-1.01225 -3.78337 19.237
-0.98466 -3.77051 19.1713
-0.955366 -3.76174 19.141
-0.930463 -3.76182 19.145
-0.903246 -3.7517 19.0965
-0.878164 -3.74824 19.0796
-0.84992 -3.73158 18.9964
-0.82652 -3.7307 18.988
-0.797158 -3.7157 18.922
-0.770563 -3.70516 18.8707
-0.738956 -3.67237 18.7091
-0.692673 -3.67051 18.6933
-0.664945 -3.66277 18.6664
-0.642453 -3.663 18.6626
-0.619971 -3.66324 18.6588
-0.59709 -3.66242 18.6507
-0.575886 -3.66726 18.6678
-0.55243 -3.67287 18.6995
-0.529256 -3.67562 18.7131
-0.507554 -3.68335 18.7483
-0.485008 -3.68358 18.7443
-0.46088 -3.68035 18.7279
-0.435056 -3.67524 18.7086
-0.412211 -3.67442 18.7003
-0.389749 -3.67466 18.6963
-0.365281 -3.67432 18.698
-0.342258 -3.67171 18.6808
-0.320453 -3.67356 18.6828
-0.294959 -3.67468 18.6968
-0.271724 -3.67252 18.6833
-0.246371 -3.66688 18.6602
-0.225152 -3.66661 18.6484
-0.202175 -3.66044 18.6128
-0.178378 -3.65851 18.6034
-0.154259 -3.65839 18.6052
-0.130182 -3.65294 18.5787
-0.107946 -3.65319 18.5746
-0.0857207 -3.65345 18.5704
-0.0609352 -3.65541 18.5856
-0.0389895 -3.65789 18.5917
-0.0159033 -3.66059 18.6034
0.00935759 -3.65832 18.5988
0.0290367 -3.66854 18.6345
0.0538334 -3.67239 18.6586
0.075883 -3.67759 18.678
0.0969789 -3.69071 18.7327
0.124259 -3.69809 18.7833
0.146155 -3.74197 18.9914
0.170749 -3.73637 18.966
0.190303 -3.76052 19.0657
0.216752 -3.75415 19.0437
0.240398 -3.76259 19.0824
0.263085 -3.76282 19.0775
0.286455 -3.77132 19.1147
0.308202 -3.78709 19.1798
0.332831 -3.80268 19.2545
0.356588 -3.80613 19.268
0.381052 -3.80939 19.2832
0.433658 -3.8009 19.2578
0.455517 -3.80366 19.2606
0.477382 -3.80642 19.2634
0.501643 -3.80606 19.261
0.525537 -3.80439 19.2512
0.548854 -3.80851 19.2656
0.573652 -3.81012 19.274
0.599404 -3.81307 19.2919
0.624655 -3.81497 19.303
0.647015 -3.81908 19.3133
0.671381 -3.82556 19.3412
0.694585 -3.83229 19.3657
0.719542 -3.83391 19.374
0.746591 -3.83677 19.3952
0.772069 -3.84487 19.4332
0.795487 -3.84667 19.4363
0.818608 -3.85472 19.4651
0.847537 -3.8689 19.5406
0.876379 -3.89321 19.6581
0.943541 -4.01094 20.214
0.97149 -4.01973 20.2587
0.997525 -4.02098 20.2648
1.02258 -4.02307 20.2709
1.04814 -4.02335 20.2713
1.07313 -4.0222 20.2637
1.09761 -4.02286 20.2619
1.12291 -4.02404 20.2651
1.14906 -4.02493 20.2699
1.17525 -4.02417 20.2682
1.20182 -4.02602 20.2782
1.22576 -4.03538 20.3093
1.25368 -4.03679 20.3219
1.28054 -4.03995 20.3378
1.30419 -4.04008 20.3307
1.33161 -4.03736 20.3251
1.35597 -4.03795 20.3224
1.37821 -4.0352 20.2996
1.40527 -4.03248 20.293
1.43242 -4.03055 20.2898
1.4569 -4.03186 20.2904
1.48238 -4.03861 20.3151
1.50975 -4.04066 20.3278
-2.11941 -4.04534 20.6271
-2.09375 -4.04438 20.6168
-2.06854 -4.04442 20.6122
-2.04069 -4.0436 20.6178
-2.01228 -4.04 20.6038
-1.98859 -4.04174 20.6035
-1.95453 -4.03161 20.5726
-1.90094 -4.0228 20.5125
-1.87073 -4.01831 20.5038
-1.84021 -4.01283 20.4895
-1.81454 -4.01195 20.4817
-1.78957 -4.01201 20.4771
-1.76461 -4.01207 20.4724
-1.73966 -4.01214 20.4677
-1.71309 -4.01055 20.4601
-1.53746 -3.85628 19.7348
-1.48539 -3.84509 19.6661
-1.45781 -3.8399 19.6441
-1.4303 -3.83472 19.6222
-1.40465 -3.8322 19.6092
-1.37725 -3.82705 19.5874
-1.34872 -3.8204 19.5615
-1.3238 -3.81828 19.548
-1.2954 -3.81166 19.5222
-1.27327 -3.81355 19.5217
-1.24863 -3.80923 19.492
-1.22303 -3.80738 19.4848
-1.19756 -3.80613 19.4809
-1.17331 -3.80615 19.4793
-1.14847 -3.80475 19.4712
-1.11871 -3.79712 19.4475
-1.09677 -3.80099 19.4595
-1.07306 -3.79875 19.4403
-1.02847 -3.74116 19.167
-1.00547 -3.74147 19.1629
-0.979635 -3.73687 19.1414
-0.950912 -3.72588 19.0939
-0.925321 -3.72306 19.0833
-0.893711 -3.70034 18.9768
-0.870501 -3.69801 18.9584
-0.845903 -3.69164 18.9217
-0.785867 -3.64358 18.6844
-0.76191 -3.64356 18.6859
-0.733377 -3.63036 18.6289
-0.709542 -3.6282 18.6172
-0.688107 -3.63103 18.6243
-0.664473 -3.63033 18.6205
-0.637594 -3.62133 18.5826
-0.616826 -3.62699 18.6033
-0.592045 -3.6284 18.6175
-0.56741 -3.62376 18.5953
-0.548362 -3.63258 18.6261
-0.524949 -3.63555 18.6426
-0.504989 -3.64417 18.6757
-0.480675 -3.64395 18.6776
-0.456989 -3.64141 18.6634
-0.434862 -3.64111 18.6549
-0.411984 -3.6438 18.6668
-0.386996 -3.64007 18.652
-0.360686 -3.63546 18.6382
-0.339328 -3.63948 18.6506
-0.31529 -3.63593 18.6329
-0.292357 -3.63565 18.6285
-0.268696 -3.63088 18.6029
-0.24501 -3.62749 18.585
-0.222273 -3.62775 18.583
-0.199003 -3.62036 18.5423
-0.173567 -3.6198 18.5476
-0.149615 -3.6178 18.5388
-0.127021 -3.61769 18.5345
-0.105333 -3.6205 18.5417
-0.0824406 -3.61861 18.5293
-0.060279 -3.61888 18.5252
-0.03762 -3.61885 18.5216
-0.0122485 -3.61869 18.5286
0.0119264 -3.61979 18.537
0.0311955 -3.62704 18.5565
0.054482 -3.62966 18.5688
0.079711 -3.62706 18.5625
0.0988257 -3.63925 18.6056
0.123198 -3.64566 18.6406
0.146404 -3.65368 18.6786
0.167375 -3.6672 18.7343
0.191675 -3.67352 18.7674
0.213732 -3.69474 18.8638
0.238528 -3.71072 18.9448
0.261717 -3.72548 19.0127
0.284383 -3.73523 19.0537
0.308158 -3.74325 19.0904
0.331735 -3.75508 19.144
0.358054 -3.77113 19.2277
0.374863 -3.75459 19.1204
0.4554 -3.77973 19.2664
0.47799 -3.77909 19.2563
0.501949 -3.77885 19.2533
0.525201 -3.77961 19.2522
0.549456 -3.78101 19.2578
0.573491 -3.78405 19.2699
0.597916 -3.78769 19.2861
0.622924 -3.79025 19.2994
0.647089 -3.7914 19.3032
0.669461 -3.79882 19.3281
0.695662 -3.80489 19.3609
0.719339 -3.81118 19.3852
0.747838 -3.81305 19.4074
0.772447 -3.81956 19.4355
0.79552 -3.82381 19.448
0.821433 -3.83338 19.4936
0.851018 -3.84702 19.5693
0.875944 -3.86109 19.6296
0.946598 -3.9887 20.2432
0.9719 -3.99748 20.2786
0.99956 -3.99991 20.2953
1.0233 -4.00004 20.2886
1.04888 -4.00032 20.2889
1.07445 -4.00061 20.2892
1.10151 -4.0001 20.2915
1.12432 -4.00163 20.2873
1.15053 -4.00087 20.2856
1.17671 -4.00176 20.2904
1.20113 -4.00655 20.3049
1.22728 -4.0124 20.3294
1.25338 -4.01404 20.3368
1.2806 -4.01499 20.3451
1.30461 -4.01589 20.3422
1.33136 -4.01462 20.3401
1.35499 -4.01475 20.333
1.37725 -4.01203 20.3102
1.40432 -4.00932 20.3036
1.43148 -4.0074 20.3005
1.45841 -4.01055 20.3162
1.48803 -4.01626 20.3505
1.51271 -4.02511 20.3804
-2.12188 -4.02152 20.637
-2.09564 -4.02106 20.6348
-2.06889 -4.01879 20.6204
-2.04209 -4.01902 20.628
-2.01674 -4.02117 20.6421
-1.98947 -4.01814 20.6251
-1.95772 -4.00983 20.5938
-1.90232 -3.99922 20.5295
-1.8752 -3.99766 20.5249
-1.84121 -3.98931 20.509
-1.81586 -3.9884 20.4987
-1.79087 -3.98847 20.4941
-1.76556 -3.98756 20.4838
-1.74093 -3.98861 20.4847
-1.71395 -3.98586 20.4704
-1.53181 -3.82491 19.7256
-1.48746 -3.82225 19.6749
-1.45803 -3.81442 19.644
-1.43052 -3.80927 19.6221
-1.40307 -3.80413 19.6003
-1.37568 -3.79901 19.5785
-1.34545 -3.78939 19.5406
-1.3208 -3.78665 19.5213
-1.29613 -3.78254 19.4927
-1.26976 -3.77673 19.4617
-1.24597 -3.77602 19.4526
-1.2222 -3.77649 19.4517
-1.19765 -3.77748 19.4585
-1.17143 -3.77548 19.4537
-1.14451 -3.77112 19.4368
-1.11849 -3.76867 19.4282
-1.09329 -3.76685 19.4195
-1.07263 -3.76957 19.4175
-1.02582 -3.70814 19.1281
-1.00075 -3.70266 19.097
-0.97216 -3.6917 19.0485
-0.94831 -3.69295 19.0556
-0.91742 -3.6704 18.9451
-0.886869 -3.64807 18.8358
-0.804928 -3.61087 18.6548
-0.755194 -3.60289 18.618
-0.658883 -3.59612 18.5875
-0.591738 -3.59689 18.5764
-0.569375 -3.59715 18.5727
-0.502399 -3.6028 18.5894
-0.457681 -3.61309 18.6379
-0.362886 -3.6093 18.6185
-0.340595 -3.60793 18.6052
-0.318405 -3.60494 18.5826
-0.246646 -3.59608 18.5393
-0.153085 -3.58754 18.4922
-0.125311 -3.58787 18.5124
-0.0146631 -3.58927 18.492
0.0360251 -3.59473 18.5355
0.101015 -3.60522 18.566
0.171795 -3.62191 18.6493
0.190189 -3.62577 18.6473
0.216489 -3.6338 18.6972
0.261869 -3.6512 18.7735
0.286524 -3.66237 18.8308
0.310567 -3.68779 18.9536
0.334784 -3.70097 19.0172
0.355603 -3.72022 19.0959
0.378044 -3.73374 19.1529
0.550917 -3.7552 19.2609
0.573262 -3.75848 19.2678
0.59856 -3.75917 19.274
0.624729 -3.76125 19.2896
0.645874 -3.7691 19.3123
0.672329 -3.77257 19.3349
0.696161 -3.7809 19.3691
0.719642 -3.78655 19.3899
0.747268 -3.79105 19.4206
0.773865 -3.79232 19.4331
0.794354 -3.80138 19.4573
0.820294 -3.80642 19.4835
0.848966 -3.82001 19.5563
0.874798 -3.8385 19.6392
0.943276 -3.96329 20.2363
0.970672 -3.97227 20.2802
0.99968 -3.97624 20.3084
1.02402 -3.97698 20.3062
1.04962 -3.97727 20.3065
1.07581 -3.97815 20.3115
1.1008 -3.97784 20.3072
1.12578 -3.97754 20.3029
1.15237 -3.97937 20.3131
1.18066 -3.9817 20.331
1.20382 -3.98913 20.3518
1.23049 -3.99097 20.3619
1.25823 -3.99206 20.3725
1.28303 -3.99386 20.3758
1.30477 -3.9911 20.3506
1.33037 -3.99139 20.3507
1.35659 -3.989 20.3423
1.38021 -3.98915 20.3352
1.40579 -3.98398 20.3139
1.43365 -3.98445 20.3224
1.45992 -3.98918 20.342
1.48789 -3.99349 20.3655
-2.09536 -3.99815 20.6716
-2.04631 -3.99706 20.642
-2.01918 -3.99733 20.652
-1.99395 -3.99739 20.6474
-1.87833 -3.97671 20.5525
-1.85048 -3.97301 20.5349
-1.76923 -3.96779 20.5161
-1.74423 -3.96786 20.5114
-1.54065 -3.80993 19.7549
-1.48979 -3.80028 19.689
-1.459 -3.79164 19.6596
-1.43439 -3.7891 19.6399
-1.4051 -3.78135 19.6091
-1.3741 -3.77099 19.5695
-1.34791 -3.76587 19.5412
-1.32249 -3.75896 19.496
-1.29843 -3.75736 19.4817
-1.26978 -3.75061 19.4565
-1.24447 -3.74819 19.4438
-1.22091 -3.74837 19.4398
-1.19735 -3.74855 19.4357
-1.17173 -3.74842 19.4407
-1.14458 -3.74381 19.4233
-1.11679 -3.74017 19.416
-1.07325 -3.68744 19.1615
-1.02686 -3.68016 19.1028
-1.00216 -3.67785 19.0905
-0.933121 -3.61815 18.808
-0.907894 -3.6085 18.753
-0.88352 -3.60464 18.7317
-0.856282 -3.59671 18.6989
-0.829225 -3.58962 18.671
-0.807924 -3.58987 18.6613
-0.785403 -3.59012 18.6576
-0.758517 -3.58306 18.6298
-0.733352 -3.58088 18.6243
-0.710897 -3.58114 18.6206
-0.689713 -3.5814 18.6108
-0.665968 -3.58085 18.6086
-0.643461 -3.57949 18.5955
-0.621059 -3.57975 18.5918
-0.596001 -3.57759 18.5861
-0.572152 -3.58028 18.6038
-0.54869 -3.57917 18.5969
-0.526387 -3.58324 18.6152
-0.503997 -3.5835 18.6113
-0.48165 -3.58968 18.6417
-0.459238 -3.59377 18.6599
-0.436813 -3.59403 18.656
-0.414399 -3.59429 18.652
-0.391994 -3.59456 18.6481
-0.367509 -3.5924 18.6399
-0.342109 -3.58621 18.6132
-0.319806 -3.58567 18.6045
-0.294989 -3.58111 18.5848
-0.270181 -3.57737 18.5698
-0.247967 -3.57684 18.5611
-0.224713 -3.57567 18.5537
-0.202276 -3.57499 18.5453
-0.178864 -3.57286 18.5335
-0.154302 -3.56835 18.5139
-0.132137 -3.56863 18.5099
-0.107409 -3.56653 18.5041
-0.0878387 -3.56919 18.5017
-0.0656129 -3.57028 18.5022
-0.0378667 -3.5698 18.5178
-0.01563 -3.57088 18.5183
0.00671484 -3.57277 18.5234
0.0304156 -3.57596 18.5406
0.0521351 -3.57636 18.5353
0.0754614 -3.57966 18.5514
0.0971086 -3.58596 18.5756
0.119442 -3.58728 18.5773
0.142515 -3.59281 18.603
0.166097 -3.59615 18.6196
0.190594 -3.6053 18.6685
0.212503 -3.61165 18.6928
0.236536 -3.61648 18.7178
0.259826 -3.62585 18.7617
0.28445 -3.63334 18.8014
0.310664 -3.65465 18.9138
0.331407 -3.67475 18.9977
0.381599 -3.72328 19.2367
0.403432 -3.72603 19.2396
0.570707 -3.73615 19.2716
0.596225 -3.73684 19.2786
0.620846 -3.73885 19.2882
0.644659 -3.74678 19.3214
0.667461 -3.74702 19.3159
0.693061 -3.75606 19.3602
0.718452 -3.76416 19.3991
0.745722 -3.76899 19.4301
0.768186 -3.77655 19.4552
0.79482 -3.77916 19.4736
0.820203 -3.78503 19.5015
0.85197 -3.80035 19.5933
0.872133 -3.8117 19.6252
0.945528 -3.94188 20.2665
0.9735 -3.9533 20.323
0.99764 -3.9544 20.3215
1.02214 -3.95643 20.3253
1.04962 -3.95686 20.3328
1.07711 -3.95728 20.3404
1.10086 -3.95744 20.3335
1.15069 -3.9634 20.3513
1.17523 -3.96544 20.3549
1.20281 -3.96718 20.3679
1.23199 -3.97009 20.391
1.25826 -3.97592 20.4156
1.30313 -3.97054 20.3698
1.33112 -3.96919 20.3714
1.3565 -3.96765 20.3634
1.37924 -3.96592 20.3458
1.40285 -3.96607 20.3387
1.4304 -3.96652 20.3459
1.45796 -3.96696 20.3532
1.48486 -3.97063 20.3707
-2.10367 -3.97806 20.6745
-2.07128 -3.97138 20.6597
-2.04908 -3.97464 20.6621
-2.02202 -3.97445 20.6676
-1.99677 -3.97452 20.663
-1.97153 -3.97458 20.6583
-1.93988 -3.96612 20.6243
-1.9122 -3.96238 20.6042
-1.88111 -3.95494 20.576
-1.85391 -3.95219 20.5617
-1.82884 -3.95227 20.557
-1.80342 -3.95138 20.5466
-1.77837 -3.95145 20.5419
-1.75333 -3.95153 20.5371
-1.54494 -3.78806 19.759
-1.49294 -3.77808 19.6967
-1.46273 -3.77027 19.6697
-1.43497 -3.76497 19.6476
-1.4035 -3.7533 19.6001
-1.37723 -3.7482 19.5717
-1.35092 -3.74044 19.5245
-1.32132 -3.73131 19.4867
-1.2971 -3.73038 19.478
-1.27127 -3.72692 19.4604
-1.24515 -3.72401 19.4485
-1.21998 -3.72169 19.4356
-1.19587 -3.72076 19.4269
-1.17163 -3.72031 19.4223
-1.1477 -3.71942 19.413
-1.11794 -3.71039 19.3795
-1.07005 -3.64989 19.0935
-1.05289 -3.65911 19.1189
-1.02182 -3.63988 19.0265
-0.984547 -3.60226 18.8453
-0.957775 -3.59051 18.783
-0.930902 -3.58248 18.7465
-0.90471 -3.57678 18.7222
-0.878584 -3.5711 18.6979
-0.854614 -3.56898 18.6861
-0.830385 -3.56292 18.6505
-0.809718 -3.56319 18.6377
-0.786862 -3.56183 18.6256
-0.759642 -3.55522 18.6023
-0.735313 -3.55267 18.5904
-0.714405 -3.55558 18.5958
-0.690227 -3.55432 18.5913
-0.664517 -3.55023 18.5769
-0.63955 -3.54969 18.5808
-0.618024 -3.54996 18.573
-0.595921 -3.55248 18.5816
-0.573551 -3.55275 18.5779
-0.54905 -3.55329 18.5859
-0.525743 -3.55473 18.5934
-0.503269 -3.55796 18.6076
-0.481409 -3.56041 18.6141
-0.46004 -3.56609 18.6371
-0.436951 -3.5663 18.636
-0.412967 -3.56664 18.6398
-0.390581 -3.56691 18.6359
-0.36728 -3.5658 18.6283
-0.34111 -3.55885 18.6006
-0.318445 -3.55809 18.5924
-0.29329 -3.55288 18.5705
-0.270852 -3.55056 18.5528
-0.248305 -3.54927 18.5415
-0.223619 -3.54706 18.5346
-0.201187 -3.54662 18.5277
-0.17719 -3.54405 18.516
-0.154552 -3.54433 18.514
-0.131215 -3.54224 18.5022
-0.110105 -3.54423 18.5028
-0.0872327 -3.54384 18.4983
-0.064178 -3.54252 18.4896
-0.0415276 -3.54526 18.5007
-0.0165933 -3.5437 18.4988
0.00696687 -3.54502 18.5062
0.0280806 -3.54763 18.5099
0.0516799 -3.54901 18.5176
0.0754776 -3.55125 18.5304
0.0971294 -3.55473 18.5405
0.119951 -3.55915 18.5601
0.143042 -3.5649 18.5873
0.16739 -3.56555 18.5937
0.190971 -3.56887 18.6103
0.212651 -3.57781 18.6469
0.23549 -3.58535 18.6809
0.258735 -3.59049 18.7043
0.280237 -3.60151 18.7493
0.303869 -3.61403 18.8097
0.328161 -3.63041 18.8907
0.352903 -3.64059 18.9427
0.378181 -3.65777 19.03
0.401 -3.69259 19.1908
0.425645 -3.6968 19.2119
0.44935 -3.70429 19.2446
0.571704 -3.71258 19.2832
0.5961 -3.71457 19.292
0.62111 -3.7171 19.3054
0.644307 -3.72294 19.3269
0.669083 -3.72733 19.3475
0.691864 -3.73368 19.3693
0.718692 -3.7393 19.4026
0.744813 -3.74705 19.4426
0.76873 -3.75416 19.4711
0.793655 -3.75668 19.4829
0.820428 -3.76645 19.5331
0.847162 -3.77717 19.5868
0.871569 -3.79068 19.6437
0.8998 -3.81515 19.7613
0.94068 -3.91569 20.2507
0.969355 -3.93022 20.3234
1.00041 -3.93505 20.3628
1.02507 -3.93893 20.3747
1.04776 -3.94083 20.3712
1.07324 -3.94065 20.3689
1.09784 -3.94132 20.367
1.12397 -3.94295 20.3745
1.15081 -3.94294 20.3777
1.17497 -3.94404 20.376
1.20291 -3.94814 20.3999
1.2266 -3.95376 20.4149
1.25498 -3.95379 20.4233
1.28186 -3.9519 20.4187
1.30601 -3.94753 20.3949
1.331 -3.94561 20.3838
1.35553 -3.94438 20.374
1.37963 -3.94548 20.3722
1.40505 -3.94305 20.3608
1.43086 -3.94608 20.3723
1.45714 -3.94698 20.377
1.48931 -3.95082 20.4128
-2.10029 -3.95036 20.6913
-2.075 -3.95043 20.6868
-2.04871 -3.94998 20.6846
-2.02486 -3.95154 20.6832
-1.99818 -3.95012 20.6753
-1.97297 -3.9508 20.6755
-1.91534 -3.94051 20.6254
-1.88867 -3.9367 20.5979
-1.85736 -3.93132 20.5885
-1.82814 -3.92877 20.5887
-1.80305 -3.92886 20.584
-1.77796 -3.92894 20.5793
-1.54587 -3.76451 19.7705
-1.4922 -3.7523 19.7003
-1.46261 -3.74413 19.6668
-1.43423 -3.73765 19.6392
-1.40155 -3.72395 19.5833
-1.37572 -3.71624 19.5328
-1.34695 -3.70844 19.4993
-1.32045 -3.70388 19.477
-1.29556 -3.70253 19.4691
-1.27068 -3.70117 19.4611
-1.2449 -3.69775 19.4436
-1.21917 -3.69434 19.426
-1.19314 -3.69146 19.4142
-1.1675 -3.68806 19.3967
-1.14346 -3.68716 19.388
-1.06897 -3.61657 19.0417
-1.00805 -3.57835 18.8514
-0.98073 -3.5647 18.7783
-0.956357 -3.56169 18.7617
-0.929057 -3.55462 18.7336
-0.901678 -3.54636 18.6984
-0.880159 -3.54542 18.6816
-0.855512 -3.54036 18.6541
-0.83153 -3.53628 18.6299
-0.806545 -3.53275 18.6145
-0.783179 -3.53095 18.6023
-0.759394 -3.52888 18.5906
-0.735857 -3.5277 18.5834
-0.712339 -3.52652 18.5762
-0.689263 -3.52663 18.5749
-0.66511 -3.52556 18.5716
-0.641933 -3.5235 18.5574
-0.618579 -3.52424 18.5614
-0.593991 -3.52347 18.5622
-0.571978 -3.52537 18.5667
-0.549369 -3.52607 18.5668
-0.526732 -3.5301 18.5868
-0.502624 -3.52957 18.5865
-0.481686 -3.53442 18.6031
-0.459702 -3.53573 18.6035
-0.4368 -3.53792 18.6133
-0.413353 -3.53963 18.6228
-0.388931 -3.53559 18.6034
-0.365368 -3.5358 18.6047
-0.340161 -3.52992 18.5787
-0.31797 -3.52783 18.5609
-0.295782 -3.52653 18.5476
-0.273668 -3.52443 18.5298
-0.248826 -3.52273 18.5264
-0.225786 -3.52183 18.5196
-0.203633 -3.5216 18.5125
-0.178053 -3.51818 18.5032
-0.154152 -3.51715 18.4996
-0.131275 -3.51729 18.4979
-0.109139 -3.51759 18.4939
-0.0870136 -3.51789 18.4899
-0.063929 -3.51676 18.4824
-0.0418302 -3.51706 18.4783
-0.0170887 -3.51814 18.4896
0.00713718 -3.51907 18.4979
0.0292294 -3.51937 18.4937
0.0504311 -3.52325 18.5045
0.0734181 -3.52513 18.5122
0.0967179 -3.52537 18.5127
0.119468 -3.53101 18.5385
0.142982 -3.53369 18.5521
0.164833 -3.53795 18.5668
0.188399 -3.54408 18.5977
0.213536 -3.54472 18.6072
0.235907 -3.55297 18.6432
0.258957 -3.55669 18.6592
0.28027 -3.56528 18.692
0.303406 -3.57439 18.7343
0.327081 -3.58383 18.7799
0.351011 -3.59217 18.8208
0.374587 -3.61437 18.9266
0.401131 -3.62907 19.0071
0.422893 -3.65827 19.1373
0.450495 -3.67653 19.237
0.475049 -3.67986 19.2532
0.522477 -3.68127 19.2541
0.545729 -3.68322 19.2586
0.570072 -3.68569 19.2695
0.594688 -3.69089 19.2941
0.620212 -3.6921 19.3034
0.643991 -3.69708 19.3233
0.668008 -3.70116 19.3399
0.69247 -3.70654 19.3637
0.717413 -3.7132 19.3949
0.743814 -3.7229 19.4449
0.76921 -3.72562 19.4596
0.79375 -3.73397 19.4958
0.819557 -3.7415 19.5329
0.846346 -3.75074 19.5806
0.871342 -3.76739 19.6537
0.901379 -3.78939 19.7679
0.944346 -3.89369 20.2839
0.973429 -3.90841 20.3592
0.998967 -3.91718 20.3955
1.02449 -3.917 20.3932
1.05075 -3.9187 20.4015
1.07705 -3.91958 20.4065
1.10215 -3.91929 20.4022
1.12635 -3.92039 20.4005
1.15427 -3.92447 20.4245
1.17796 -3.93009 20.4397
1.20348 -3.92992 20.4372
1.22982 -3.93162 20.4454
1.25672 -3.93036 20.4433
1.28257 -3.92685 20.4285
1.30631 -3.92431 20.4103
1.33001 -3.9223 20.3944
1.355 -3.92202 20.3899
1.37867 -3.92219 20.3828
1.40687 -3.91996 20.3815
1.43257 -3.92352 20.3948
1.45883 -3.92278 20.3929
1.4883 -3.9266 20.4196
-2.07745 -3.92651 20.6966
-2.05115 -3.92607 20.6945
-2.02592 -3.92674 20.6947
-1.99968 -3.92691 20.6975
-1.97349 -3.92767 20.7051
-1.91537 -3.91586 20.6442
-1.89117 -3.91586 20.6322
-1.8588 -3.91057 20.63
-1.82983 -3.90601 20.6115
-1.80471 -3.9061 20.6068
-1.7796 -3.90619 20.6021
-1.54651 -3.73833 19.7633
-1.5146 -3.72797 19.7256
-1.49352 -3.72807 19.7035
-1.46308 -3.7188 19.6663
-1.43204 -3.70823 19.6232
-1.40431 -3.69982 19.5776
-1.37428 -3.68804 19.5209
-1.34606 -3.681 19.4896
-1.32114 -3.67965 19.4817
-1.29624 -3.67831 19.4737
-1.27042 -3.6749 19.4562
-1.24465 -3.6715 19.4386
-1.21984 -3.67017 19.4307
-1.193 -3.66415 19.4009
-1.16277 -3.65011 19.3336
-1.14104 -3.65286 19.3383
-1.09549 -3.59615 19.059
-1.06364 -3.57548 18.9583
-1.03302 -3.5564 18.8633
-1.00684 -3.54532 18.8004
-0.979218 -3.53704 18.765
-0.951358 -3.52919 18.7341
-0.928159 -3.52543 18.7067
-0.904723 -3.52185 18.6819
-0.880239 -3.51714 18.6555
-0.853176 -3.5104 18.6294
-0.830225 -3.50965 18.6215
-0.805926 -3.50655 18.6054
-0.781224 -3.50394 18.5947
-0.757006 -3.50086 18.5787
-0.734604 -3.50114 18.5751
-0.710453 -3.49807 18.5591
-0.688084 -3.49835 18.5555
-0.664625 -3.4972 18.5484
-0.64228 -3.49748 18.5447
-0.617739 -3.49739 18.5495
-0.595056 -3.49801 18.5496
-0.571923 -3.49986 18.5593
-0.548896 -3.49998 18.5579
-0.527538 -3.503 18.5661
-0.503256 -3.50386 18.575
-0.481827 -3.50811 18.5905
-0.458603 -3.50918 18.5955
-0.437127 -3.51185 18.6016
-0.413913 -3.51054 18.5924
-0.389847 -3.50844 18.5827
-0.366316 -3.50657 18.572
-0.34191 -3.50109 18.5446
-0.318633 -3.49995 18.5373
-0.296395 -3.50025 18.5334
-0.272712 -3.49723 18.5173
-0.247955 -3.49447 18.5077
-0.225837 -3.49387 18.4985
-0.20266 -3.4929 18.492
-0.178801 -3.49366 18.4981
-0.155255 -3.49395 18.5002
-0.131938 -3.49189 18.4885
-0.109814 -3.49219 18.4845
-0.0867576 -3.49249 18.4845
-0.0643516 -3.49373 18.4868
-0.0409475 -3.49074 18.4707
-0.0184059 -3.49457 18.4873
0.00537595 -3.49463 18.4891
0.0294429 -3.49399 18.4884
0.0509047 -3.49665 18.494
0.0729785 -3.49696 18.4899
0.0961477 -3.49805 18.4943
0.119933 -3.50039 18.5078
0.141742 -3.50589 18.529
0.165875 -3.5076 18.5404
0.188869 -3.51264 18.5637
0.212097 -3.51689 18.5838
0.236148 -3.51941 18.5984
0.25778 -3.52753 18.6309
0.280979 -3.5326 18.6542
0.304335 -3.54033 18.6911
0.327737 -3.54406 18.7081
0.350948 -3.55533 18.761
0.373996 -3.56816 18.8203
0.399079 -3.58449 18.9039
0.423221 -3.6174 19.0627
0.44736 -3.63723 19.1573
0.473348 -3.64587 19.2049
0.497109 -3.65533 19.2472
0.52099 -3.65812 19.2582
0.545952 -3.65844 19.2616
0.571213 -3.66128 19.2779
0.59399 -3.6674 19.2997
0.618408 -3.66938 19.3085
0.644538 -3.66974 19.3162
0.667161 -3.67642 19.3395
0.692227 -3.68089 19.3616
0.71589 -3.68773 19.3891
0.743374 -3.69659 19.4396
0.770324 -3.70253 19.4747
0.792764 -3.70899 19.4948
0.820204 -3.7176 19.5429
0.846945 -3.72821 19.5968
0.870795 -3.73904 19.6404
0.90123 -3.76771 19.7859
0.942065 -3.86461 20.2648
0.973343 -3.88499 20.3732
0.999498 -3.89347 20.4106
1.02577 -3.89516 20.4189
1.05206 -3.89685 20.4273
1.07836 -3.89855 20.4357
1.12919 -3.90636 20.4643
1.15305 -3.90653 20.4573
1.17859 -3.90718 20.4582
1.20569 -3.9085 20.4675
1.23222 -3.90755 20.4653
1.2557 -3.90698 20.4539
1.28156 -3.90349 20.4391
1.30596 -3.901 20.4233
1.33162 -3.89806 20.4103
1.35447 -3.89963 20.4058
1.3777 -3.89888 20.3934
1.40486 -3.89838 20.3954
1.43294 -3.89974 20.4081
1.45981 -3.89974 20.4111
1.48976 -3.90573 20.4481
-2.05208 -3.90185 20.7125
-2.02426 -3.90014 20.7096
-2.0021 -3.90297 20.7073
-1.9759 -3.90373 20.715
-1.94921 -3.90233 20.707
-1.91616 -3.89309 20.6745
-1.89057 -3.89222 20.6641
-1.865 -3.89136 20.6537
-1.83599 -3.88681 20.6351
-1.80877 -3.88411 20.6207
-1.78878 -3.88972 20.628
-1.54283 -3.70906 19.7584
-1.51293 -3.69979 19.7164
-1.49062 -3.69816 19.6884
-1.46092 -3.68966 19.6522
-1.42718 -3.67426 19.588
-1.40514 -3.67268 19.5603
-1.37337 -3.66059 19.5111
-1.34379 -3.65272 19.4813
-1.31957 -3.65182 19.4727
-1.29537 -3.65092 19.464
-1.2678 -3.64528 19.4401
-1.24194 -3.64111 19.4174
-1.21983 -3.64292 19.417
-1.18584 -3.62227 19.3222
-1.11479 -3.55857 18.9953
-1.08823 -3.55224 18.9651
-1.0567 -3.53267 18.87
-1.02996 -3.52182 18.8108
-1.00208 -3.51238 18.7682
-0.976072 -3.50659 18.741
-0.95408 -3.50329 18.7098
-0.926601 -3.49453 18.6712
-0.899873 -3.48802 18.6441
-0.874834 -3.48381 18.6239
-0.84935 -3.4793 18.6043
-0.826323 -3.47859 18.5973
-0.804111 -3.47854 18.5904
-0.778385 -3.47346 18.5688
-0.755024 -3.47196 18.5587
-0.730898 -3.47086 18.5551
-0.708534 -3.47115 18.5516
-0.686178 -3.47144 18.548
-0.663831 -3.47172 18.5444
-0.640541 -3.47052 18.5362
-0.617901 -3.47127 18.537
-0.595584 -3.47156 18.5333
-0.572029 -3.473 18.5428
-0.546668 -3.47206 18.5463
-0.524362 -3.47236 18.5426
-0.501704 -3.47365 18.5466
-0.476635 -3.47477 18.561
-0.457123 -3.48164 18.5832
-0.431674 -3.47688 18.5641
-0.410248 -3.4785 18.564
-0.386668 -3.47642 18.5523
-0.36312 -3.47435 18.5406
-0.338337 -3.46992 18.521
-0.316117 -3.47023 18.5172
-0.293065 -3.46921 18.5096
-0.270077 -3.46743 18.4975
-0.246238 -3.46511 18.4863
-0.224912 -3.46673 18.486
-0.201942 -3.46573 18.4785
-0.178598 -3.46498 18.474
-0.154011 -3.46577 18.4837
-0.131275 -3.46689 18.4869
-0.109155 -3.4672 18.4829
-0.0844094 -3.46215 18.4612
-0.0621367 -3.46413 18.4671
-0.0389282 -3.4621 18.4553
-0.0163953 -3.46241 18.4533
0.00438196 -3.46741 18.4687
0.0315393 -3.463 18.4614
0.0515664 -3.46917 18.4796
0.0752122 -3.46727 18.4705
0.0972486 -3.46759 18.4664
0.120842 -3.47126 18.4861
0.144472 -3.47494 18.5059
0.166286 -3.47926 18.5212
0.191338 -3.48128 18.538
0.211607 -3.48892 18.5633
0.236219 -3.4905 18.5757
0.259195 -3.49319 18.5868
0.279626 -3.50203 18.6181
0.305253 -3.50289 18.6305
0.327538 -3.51173 18.6686
0.349906 -3.52059 18.7069
0.374458 -3.52858 18.7492
