-0.987441 -3.86147 19.6144
-0.961995 -3.86532 19.6421
-0.939207 -3.86955 19.6586
-0.91663 -3.87238 19.665
-0.893201 -3.87527 19.676
-0.870913 -3.88016 19.6934
-0.846552 -3.88381 19.7132
-0.824422 -3.8905 19.7404
-0.798124 -3.89681 19.7853
-0.776941 -3.9047 19.8143
-0.755866 -3.91414 19.8518
-0.73274 -3.92545 19.9098
-0.709869 -3.93451 19.9525
-0.6869 -3.94361 19.9953
-0.664541 -3.95248 20.0335
-0.641807 -3.96293 20.082
-0.618973 -3.97342 20.1307
-0.596339 -3.98238 20.1691
-0.570995 -3.98891 20.2056
-0.548088 -3.99594 20.2333
-0.522793 -3.99947 20.2518
-0.498767 -4.0007 20.2513
-0.473069 -4.00382 20.2691
-0.448765 -4.00103 20.2473
-0.418845 -3.99973 20.2594
-0.39458 -3.99888 20.2484
-0.371445 -3.99945 20.2404
-0.346099 -3.99813 20.2318
-0.320501 -3.99645 20.2226
-0.295422 -3.99664 20.2212
-0.270642 -3.9968 20.2183
-0.245735 -3.99926 20.2283
-0.220298 -4.00062 20.2346
-0.193827 -3.9998 20.2338
-0.167821 -4.00064 20.2398
-0.142155 -4.00088 20.2411
-0.117279 -3.99252 20.1944
-0.0933641 -3.99073 20.1779
-0.0681747 -3.98717 20.158
-0.0393727 -3.97866 20.1282
-0.015007 -3.97938 20.127
0.0105096 -3.97963 20.1282
0.0349804 -3.9802 20.1266
0.0615414 -3.98014 20.1306
0.0866995 -3.98431 20.1497
0.111066 -3.99703 20.2077
0.13569 -4.01119 20.2731
-3.2558 -4.2641 21.6346
-3.22845 -4.26419 21.6378
-3.19307 -4.25473 21.6005
-3.17235 -4.26082 21.6143
-3.13811 -4.25371 21.5953
-3.10956 -4.25155 21.5834
-2.91671 -4.03502 20.5616
-2.87738 -4.01961 20.5044
-2.84982 -4.01694 20.4904
-2.81766 -4.00888 20.456
-2.79082 -4.00722 20.4477
-2.76056 -4.00152 20.4241
-2.72979 -3.99486 20.3949
-2.70005 -3.98705 20.3461
-2.5403 -3.87319 19.8286
-2.51388 -3.87072 19.8156
-2.48702 -3.86618 19.7854
-2.45889 -3.86077 19.7567
-2.43468 -3.86088 19.7534
-2.39853 -3.84743 19.7062
-2.36918 -3.84027 19.6711
-2.33705 -3.83001 19.6269
-2.31244 -3.82932 19.6202
-2.28593 -3.82733 19.6148
-2.2596 -3.82421 19.5978
-2.23507 -3.8234 19.5898
-2.21105 -3.82393 19.5906
-2.1871 -3.82406 19.5872
-2.16134 -3.82428 19.597
-2.13565 -3.8241 19.6026
-2.11082 -3.82348 19.5985
-2.0849 -3.82072 19.5829
-2.05738 -3.81271 19.5325
-2.03428 -3.81301 19.5255
-2.00554 -3.80738 19.5047
-1.97976 -3.80494 19.4921
-1.95485 -3.8052 19.4968
-1.92841 -3.80147 19.4779
-1.90394 -3.80164 19.4791
-1.87743 -3.80054 19.4827
-1.8557 -3.80334 19.4881
-1.8317 -3.80418 19.4917
-1.81051 -3.80873 19.5077
-1.78621 -3.80937 19.5113
-1.76434 -3.81542 19.5429
-1.74245 -3.82098 19.5703
-1.72172 -3.82857 19.6061
-1.69907 -3.8332 19.6299
-1.67476 -3.83435 19.6364
-1.65135 -3.83493 19.6329
-1.62412 -3.83174 19.6234
-1.60316 -3.83616 19.6347
-1.57879 -3.83834 19.649
-1.55665 -3.84303 19.6688
-1.53274 -3.84317 19.6648
-1.43295 -3.84472 19.6794
-1.40747 -3.84311 19.6716
-1.38179 -3.84059 19.6585
-1.35564 -3.83699 19.6406
-1.32922 -3.83398 19.6284
-1.30317 -3.8304 19.6105
-1.27997 -3.83107 19.6068
-1.25562 -3.83071 19.6022
-1.23186 -3.83086 19.598
-1.20639 -3.82837 19.5849
-1.18114 -3.82678 19.5771
-0.988276 -3.83825 19.6257
-0.964931 -3.84112 19.6367
-0.939384 -3.84374 19.657
-0.916615 -3.84788 19.6728
-0.894851 -3.85066 19.6747
-0.869346 -3.85331 19.6944
-0.848404 -3.86099 19.7224
-0.822267 -3.86343 19.7434
-0.79959 -3.87202 19.7847
-0.776575 -3.87874 19.8159
-0.753197 -3.88705 19.858
-0.729995 -3.8965 19.9055
-0.709517 -3.90509 19.9343
-0.687269 -3.91389 19.9724
-0.664241 -3.92295 20.0153
-0.641166 -3.93317 20.0646
-0.617446 -3.94347 20.1169
-0.594033 -3.95562 20.1778
-0.570701 -3.96239 20.2066
-0.548251 -3.97037 20.2378
-0.523457 -3.97454 20.2578
-0.499146 -3.9756 20.2576
-0.474847 -3.9805 20.279
-0.450508 -3.98348 20.2896
-0.396308 -3.97654 20.2638
-0.37062 -3.97582 20.2599
-0.345904 -3.97502 20.2513
-0.321656 -3.97514 20.2456
-0.295857 -3.97577 20.2497
-0.269319 -3.9757 20.2532
-0.245042 -3.97678 20.2529
-0.219685 -3.97642 20.2496
-0.192185 -3.97739 20.2627
-0.167639 -3.9781 20.2616
-0.142379 -3.9768 20.2529
-0.114893 -3.96964 20.2233
-0.0920519 -3.96684 20.1968
-0.0692666 -3.96404 20.1703
-0.039064 -3.95623 20.1498
-0.013521 -3.95649 20.151
0.0104852 -3.95662 20.1452
0.0348599 -3.95734 20.144
0.0600013 -3.95701 20.1406
0.0866427 -3.9614 20.167
0.110495 -3.97431 20.2241
0.135885 -3.98299 20.266
-3.25797 -4.2387 21.6479
-3.22943 -4.23821 21.6553
-3.17056 -4.23145 21.6159
-3.14032 -4.2291 21.6167
-2.94695 -4.01335 20.5812
-2.90999 -4.00058 20.5319
-2.87775 -3.99315 20.5036
-2.84552 -3.98512 20.4691
-2.81865 -3.98346 20.4609
-2.78835 -3.97779 20.4373
-2.75812 -3.97213 20.4137
-2.72618 -3.96356 20.3733
-2.69929 -3.95915 20.3371
-2.56388 -3.84673 19.832
-2.53729 -3.84419 19.8192
-2.51157 -3.8422 19.8055
-2.48791 -3.84036 19.7781
-2.45786 -3.83349 19.7488
-2.43183 -3.83154 19.7388
-2.4003 -3.82262 19.7016
-2.36647 -3.81105 19.6559
-2.33642 -3.80308 19.6183
-2.3105 -3.80122 19.6098
-2.28231 -3.79695 19.595
-2.25839 -3.79681 19.5888
-2.23496 -3.79738 19.5859
-2.20894 -3.79576 19.5809
-2.18544 -3.79679 19.5828
-2.16007 -3.79725 19.5922
-2.13006 -3.79095 19.5723
-2.10833 -3.79375 19.578
-2.08075 -3.7858 19.5276
-2.05477 -3.78329 19.5152
-2.02882 -3.78079 19.5027
-2.00226 -3.77722 19.4853
-1.97704 -3.77579 19.4778
-1.95228 -3.77543 19.4765
-1.92799 -3.77479 19.4697
-1.90393 -3.77592 19.4764
-1.87775 -3.77565 19.4849
-1.85533 -3.77665 19.4799
-1.83027 -3.77776 19.4925
-1.80718 -3.77789 19.4845
-1.78698 -3.78394 19.5066
-1.76362 -3.7871 19.5246
-1.73951 -3.79212 19.5618
-1.71946 -3.7991 19.5891
-1.69901 -3.80583 19.6164
-1.67423 -3.80422 19.6043
-1.64972 -3.80495 19.6089
-1.62585 -3.8051 19.605
-1.59947 -3.804 19.6066
-1.57589 -3.80581 19.6137
-1.55166 -3.80568 19.6099
-1.52893 -3.81071 19.636
-1.50641 -3.81501 19.6551
-1.48496 -3.81962 19.67
-1.45918 -3.82263 19.6977
-1.42793 -3.81214 19.6577
-1.40751 -3.81565 19.6585
-1.38168 -3.81375 19.6507
-1.35404 -3.80842 19.6286
-1.32902 -3.8063 19.615
-1.30384 -3.80387 19.6003
-1.27933 -3.8038 19.5986
-1.25632 -3.80419 19.592
-1.23165 -3.8044 19.5932
-1.20646 -3.80209 19.5799
-1.18083 -3.80287 19.59
-1.15972 -3.80601 19.592
-1.13549 -3.80348 19.5723
-0.961509 -3.81591 19.6571
-0.939363 -3.81871 19.6614
-0.916896 -3.82193 19.6698
-0.89441 -3.82545 19.6801
-0.870015 -3.82767 19.6917
-0.847149 -3.83286 19.714
-0.823901 -3.83846 19.7404
-0.800345 -3.84439 19.7701
-0.776534 -3.85157 19.8083
-0.753888 -3.85992 19.8475
-0.730469 -3.8668 19.881
-0.708263 -3.87547 19.919
-0.684222 -3.88502 19.9706
-0.663096 -3.89445 20.007
-0.641537 -3.90226 20.0352
-0.617902 -3.9136 20.0938
-0.594136 -3.925 20.1526
-0.570429 -3.93448 20.1993
-0.547212 -3.9433 20.2393
-0.524117 -3.9496 20.2637
-0.498839 -3.95222 20.2769
-0.476632 -3.96002 20.3052
-0.452268 -3.96204 20.3104
-0.369944 -3.95366 20.2872
-0.34565 -3.95378 20.2815
-0.32137 -3.9539 20.2759
-0.2966 -3.95454 20.2752
-0.270911 -3.95431 20.274
-0.246666 -3.95443 20.2682
-0.220099 -3.95437 20.2718
-0.193742 -3.95552 20.2808
-0.168067 -3.95529 20.2795
-0.144016 -3.95352 20.2629
-0.120004 -3.95175 20.2464
-0.0936605 -3.94361 20.2068
-0.0706628 -3.94272 20.1909
-0.0391252 -3.93317 20.1668
-0.0135639 -3.93343 20.1681
0.0103417 -3.93263 20.157
0.0333102 -3.93418 20.1539
0.059626 -3.93338 20.153
0.0857643 -3.93564 20.1667
0.111139 -3.949 20.2328
0.134814 -3.96257 20.2921
-3.25962 -4.21496 21.688
-3.23343 -4.21473 21.6753
-3.20376 -4.21155 21.6597
-3.177 -4.21148 21.655
-2.94399 -3.98346 20.571
-2.90938 -3.97397 20.5386
-2.88156 -3.97008 20.5119
-2.8484 -3.96261 20.4911
-2.82135 -3.95972 20.4703
-2.79435 -3.95684 20.4494
-2.76078 -3.94844 20.4231
-2.70355 -3.93692 20.3478
-2.57214 -3.82788 19.8397
-2.53564 -3.81612 19.8084
-2.4888 -3.81457 19.7707
-2.45567 -3.80479 19.7354
-2.431 -3.804 19.7268
-2.4022 -3.79874 19.7049
-2.36655 -3.78545 19.6552
-2.33879 -3.7802 19.6269
-2.31226 -3.7765 19.6048
-2.28312 -3.7725 19.5994
-2.2578 -3.76995 19.5803
-2.2369 -3.77311 19.5837
-2.21081 -3.77202 19.5842
-2.18731 -3.77306 19.5861
-2.16337 -3.7732 19.5827
-2.13944 -3.77334 19.5793
-2.10728 -3.76377 19.5447
-2.08153 -3.76145 19.532
-2.05275 -3.75525 19.5056
-2.02682 -3.75277 19.4931
-2.00303 -3.75292 19.4897
-1.97925 -3.75308 19.4863
-1.95448 -3.75272 19.485
-1.9317 -3.75338 19.4794
-1.90564 -3.75271 19.4838
-1.87993 -3.75293 19.4934
-1.85617 -3.75309 19.4899
-1.8331 -3.75502 19.4967
-1.81001 -3.75696 19.5034
-1.78824 -3.76245 19.5309
-1.76542 -3.76527 19.5428
-1.7422 -3.76704 19.5485
-1.72161 -3.7763 19.5978
-1.69775 -3.77645 19.594
-1.6742 -3.7775 19.5954
-1.65005 -3.77676 19.5864
-1.62621 -3.77692 19.5825
-1.6001 -3.77756 19.5961
-1.57434 -3.77741 19.6014
-1.55051 -3.77756 19.5974
-1.52962 -3.78758 19.6508
-1.506 -3.78863 19.652
-1.4879 -3.79672 19.6735
-1.46285 -3.79912 19.6927
-1.43659 -3.79719 19.6868
-1.40714 -3.78996 19.6603
-1.38202 -3.78872 19.6533
-1.35705 -3.78441 19.6232
-1.32915 -3.78023 19.6109
-1.30478 -3.77952 19.6039
-1.27987 -3.77973 19.6064
-1.2561 -3.7799 19.6022
-1.23235 -3.78007 19.5981
-1.18313 -3.77958 19.5934
-1.13759 -3.78164 19.5863
-0.963392 -3.79311 19.6661
-0.93976 -3.79418 19.6668
-0.918352 -3.79965 19.6844
-0.896685 -3.80333 19.6915
-0.872282 -3.80534 19.7018
-0.82574 -3.81559 19.7496
-0.800125 -3.82403 19.8054
-0.778731 -3.82719 19.8068
-0.75467 -3.83656 19.8595
-0.732557 -3.84349 19.8871
-0.711669 -3.84988 19.9052
-0.688323 -3.86013 19.9581
-0.664911 -3.87134 20.0165
-0.641368 -3.88261 20.0751
-0.617694 -3.89392 20.134
-0.593889 -3.90528 20.193
-0.549319 -3.9175 20.2332
-0.526996 -3.92504 20.2614
-0.502712 -3.92894 20.2775
-0.478409 -3.93665 20.3152
-0.454032 -3.93962 20.3258
-0.42683 -3.93996 20.3345
-0.399666 -3.93746 20.327
-0.379073 -3.93919 20.313
-0.350976 -3.93772 20.3156
-0.326652 -3.93784 20.3099
-0.302342 -3.93797 20.3042
-0.250839 -3.93845 20.307
-0.223621 -3.93881 20.3156
-0.199345 -3.93894 20.3097
-0.172326 -3.93646 20.3021
-0.145333 -3.93399 20.2945
-0.121626 -3.92846 20.2564
-0.0922514 -3.92059 20.231
-0.0696394 -3.92062 20.218
-0.0388679 -3.91288 20.1998
-0.0150232 -3.91116 20.1833
0.00901773 -3.91131 20.1775
0.034465 -3.91063 20.1734
0.059487 -3.91141 20.175
0.0813213 -3.91362 20.1705
0.10659 -3.92219 20.2123
0.133741 -3.9421 20.3184
-3.27123 -4.19746 21.7102
-3.23592 -4.18994 21.6941
-3.20836 -4.18879 21.6831
-3.18326 -4.19034 21.682
-2.98214 -3.97007 20.6187
-2.94608 -3.95861 20.5747
-2.91133 -3.94897 20.5411
-2.88556 -3.94824 20.5328
-2.85301 -3.94042 20.5021
-2.82466 -3.93694 20.4854
-2.79628 -3.93318 20.466
-2.76345 -3.92473 20.4325
-2.72982 -3.91487 20.3906
-2.66395 -3.85983 20.1228
-2.59569 -3.80027 19.8312
-2.56479 -3.79393 19.812
-2.53598 -3.78863 19.7877
-2.51025 -3.78563 19.7636
-2.48412 -3.78344 19.7513
-2.45377 -3.77666 19.725
-2.42873 -3.77563 19.7168
-2.39995 -3.77041 19.6949
-2.36517 -3.75716 19.6387
-2.33985 -3.75325 19.6051
-2.31437 -3.75147 19.5941
-2.28493 -3.74634 19.5798
-2.25895 -3.74308 19.5586
-2.2352 -3.74478 19.569
-2.21068 -3.74609 19.581
-2.18541 -3.74369 19.5632
-2.16128 -3.74507 19.573
-2.13301 -3.73994 19.5514
-2.10481 -3.73482 19.5299
-2.08056 -3.73409 19.5213
-2.0529 -3.72719 19.4807
-2.02592 -3.72361 19.4657
-2.00171 -3.72386 19.4661
-1.97736 -3.72481 19.4736
-1.94936 -3.72003 19.4554
-1.92438 -3.71875 19.4477
-1.90503 -3.72532 19.4705
-1.88015 -3.72467 19.4675
-1.85538 -3.72493 19.4716
-1.83163 -3.72683 19.4827
-1.81217 -3.73422 19.512
-1.78939 -3.73637 19.5184
-1.76504 -3.73751 19.5264
-1.7434 -3.74357 19.5573
-1.71993 -3.74791 19.5853
-1.69597 -3.74838 19.5847
-1.67213 -3.74854 19.5809
-1.6483 -3.74871 19.5771
-1.62448 -3.74887 19.5733
-1.6001 -3.75028 19.5826
-1.57239 -3.7472 19.5771
-1.54947 -3.75064 19.5931
-1.53022 -3.75982 19.6309
-1.50571 -3.75776 19.6139
-1.48771 -3.76906 19.6595
-1.46241 -3.77219 19.6859
-1.43571 -3.76901 19.6733
-1.41036 -3.76652 19.658
-1.38475 -3.76513 19.6526
-1.3569 -3.75898 19.6253
-1.33281 -3.75647 19.6034
-1.30677 -3.75673 19.6127
-1.28124 -3.75428 19.5997
-1.25788 -3.75623 19.6059
-1.21037 -3.75658 19.5975
-1.18537 -3.75636 19.5974
-1.16133 -3.75699 19.598
-1.13672 -3.75848 19.6075
-1.11105 -3.75924 19.6176
-1.08732 -3.75942 19.6133
-0.965272 -3.77029 19.6751
-0.943108 -3.77309 19.6794
-0.920625 -3.77629 19.6879
-0.898122 -3.7798 19.6982
-0.873713 -3.782 19.7098
-0.850836 -3.78715 19.7322
-0.827578 -3.7927 19.7587
-0.803565 -3.79763 19.7848
-0.780559 -3.80425 19.816
-0.757123 -3.81163 19.8537
-0.734385 -3.82048 19.8965
-0.711903 -3.82939 19.9378
-0.687859 -3.83884 19.9896
-0.666723 -3.84821 20.026
-0.645152 -3.85597 20.0543
-0.621516 -3.86721 20.1131
-0.597748 -3.8785 20.1721
-0.574622 -3.88722 20.2121
-0.550572 -3.89539 20.2528
-0.528834 -3.90451 20.2875
-0.503477 -3.90825 20.3076
-0.48019 -3.91438 20.3317
-0.453923 -3.91635 20.3454
-0.427162 -3.91807 20.3599
-0.401365 -3.91689 20.3533
-0.376984 -3.91703 20.3476
-0.352588 -3.91811 20.3473
-0.328228 -3.91824 20.3415
-0.301453 -3.91721 20.3404
-0.275227 -3.91789 20.3462
-0.250898 -3.91802 20.3404
-0.225109 -3.91827 20.3418
-0.199324 -3.91851 20.3432
-0.170947 -3.91389 20.3297
-0.144213 -3.90804 20.3027
-0.122991 -3.90797 20.2825
-0.0950916 -3.90001 20.2499
-0.0698199 -3.89652 20.2298
-0.0457844 -3.89593 20.2197
-0.0179006 -3.88969 20.1968
0.00615745 -3.88985 20.191
0.0330118 -3.88812 20.1874
0.059344 -3.88939 20.197
0.0807692 -3.89712 20.2187
0.107536 -3.90836 20.2804
0.132517 -3.92063 20.3392
-3.27716 -4.17494 21.7247
-3.23902 -4.16497 21.7049
-3.2122 -4.16491 21.7002
-3.18539 -4.16485 21.6954
-2.9818 -3.94332 20.6225
-2.94948 -3.93571 20.5899
-2.91406 -3.92512 20.5506
-2.88827 -3.9244 20.5422
-2.85305 -3.91387 20.5031
-2.826 -3.91225 20.4962
-2.79571 -3.90604 20.4648
-2.76309 -3.89823 20.4362
-2.61552 -3.76873 19.8096
-2.5907 -3.76795 19.801
-2.5616 -3.7627 19.779
-2.53258 -3.75745 19.757
-2.50362 -3.75223 19.7351
-2.47893 -3.75146 19.7265
-2.45216 -3.74875 19.7142
-2.42179 -3.74196 19.6882
-2.38805 -3.72769 19.6124
-2.35859 -3.72095 19.5813
-2.33464 -3.7211 19.5781
-2.3039 -3.71334 19.5474
-2.27775 -3.71086 19.535
-2.25387 -3.71102 19.5318
-2.22313 -3.70272 19.497
-2.19862 -3.7023 19.4932
-2.17568 -3.70362 19.4947
-2.14968 -3.70116 19.4824
-2.12418 -3.69988 19.4778
-2.09135 -3.68844 19.4307
-2.07404 -3.69643 19.4545
-2.04544 -3.69008 19.4254
-2.01281 -3.67596 19.3544
-1.99212 -3.68132 19.3777
-1.96633 -3.67949 19.371
-1.93635 -3.67278 19.3497
-1.91855 -3.68075 19.3759
-1.89446 -3.68101 19.3763
-1.86734 -3.67705 19.3604
-1.8492 -3.68761 19.4099
-1.8255 -3.68884 19.4157
-1.80467 -3.69685 19.4599
-1.78223 -3.69858 19.4612
-1.75835 -3.69942 19.4643
-1.7329 -3.70055 19.4795
-1.71201 -3.70701 19.5095
-1.68979 -3.7098 19.5175
-1.66535 -3.7084 19.5054
-1.64683 -3.71741 19.54
-1.61892 -3.71356 19.5297
-1.59527 -3.7155 19.5392
-1.57123 -3.71627 19.5418
-1.54754 -3.71822 19.5513
-1.52722 -3.72658 19.5899
-1.50391 -3.72818 19.594
-1.4847 -3.73776 19.6343
-1.45884 -3.74014 19.6589
-1.43555 -3.74083 19.6553
-1.41213 -3.74098 19.6485
-1.37839 -3.73077 19.6249
-1.35973 -3.73346 19.6096
-1.33079 -3.73113 19.6167
-1.25741 -3.72775 19.5878
-1.20564 -3.72426 19.5762
-1.18247 -3.72709 19.5875
-1.16214 -3.73248 19.6009
-1.13779 -3.73357 19.6063
-1.11281 -3.73557 19.6213
-1.08907 -3.73575 19.617
-1.0655 -3.74088 19.6454
-0.990932 -3.74727 19.6886
-0.967151 -3.74745 19.6841
-0.943381 -3.74764 19.6796
-0.921095 -3.75151 19.6915
-0.899344 -3.75589 19.7037
-0.875559 -3.75914 19.7189
-0.849567 -3.75903 19.7237
-0.829199 -3.76771 19.7557
-0.801451 -3.77285 19.8022
-0.780926 -3.78007 19.8249
-0.757051 -3.78566 19.8539
-0.734267 -3.79264 19.8857
-0.712156 -3.8019 19.9277
-0.688573 -3.81086 19.9746
-0.666268 -3.82038 20.0182
-0.64246 -3.82864 20.0608
-0.619206 -3.84047 20.1217
-0.596003 -3.84963 20.1656
-0.574332 -3.85678 20.1896
-0.55134 -3.86665 20.2357
-0.52806 -3.87537 20.2758
-0.504184 -3.8821 20.3067
-0.481027 -3.8899 20.3399
-0.455154 -3.89255 20.3558
-0.376415 -3.89432 20.3724
-0.350478 -3.89494 20.3766
-0.326091 -3.89509 20.3708
-0.302605 -3.89704 20.3711
-0.275323 -3.89738 20.3798
-0.250958 -3.89753 20.3739
-0.223832 -3.89506 20.3663
-0.19802 -3.89531 20.3677
-0.169661 -3.89013 20.351
-0.14285 -3.88487 20.3271
-0.12436 -3.88743 20.3086
-0.0979321 -3.87939 20.2688
-0.0712188 -3.87509 20.2504
-0.0472855 -3.87339 20.2339
-0.0206668 -3.86912 20.2156
0.00613333 -3.8667 20.208
0.0329153 -3.86428 20.2004
0.0587003 -3.86593 20.2097
0.0808408 -3.87423 20.2374
0.107881 -3.88661 20.3065
-3.27585 -4.14636 21.7337
-3.24211 -4.13997 21.7157
-3.21528 -4.13992 21.7109
-3.18845 -4.13987 21.7062
-2.98429 -3.91941 20.6348
-2.95222 -3.9118 20.5993
-2.91565 -3.90083 20.5653
-2.88701 -3.89681 20.5431
-2.85524 -3.88928 20.5079
-2.82497 -3.88471 20.4947
-2.7945 -3.87814 20.4606
-2.69203 -3.81008 20.1277
-2.61851 -3.7456 19.8137
-2.58738 -3.73832 19.7858
-2.55762 -3.73265 19.7645
-2.52543 -3.72372 19.7281
-2.50075 -3.72296 19.7196
-2.47268 -3.71666 19.6795
-2.44168 -3.70933 19.6525
-2.41352 -3.70304 19.6145
-2.37579 -3.68621 19.5429
-2.35177 -3.68756 19.5529
-2.33013 -3.69034 19.5589
-2.29833 -3.67769 19.487
-2.26887 -3.67197 19.4677
-2.24138 -3.66693 19.4408
-2.20928 -3.6568 19.3987
-2.17726 -3.64435 19.3343
-2.15809 -3.65033 19.3546
-2.1313 -3.64728 19.3436
-2.09793 -3.63347 19.2782
-2.07798 -3.63864 19.2963
-2.04815 -3.63088 19.2636
-2.02609 -3.6326 19.2645
-1.99841 -3.62767 19.2437
-1.97569 -3.62896 19.2452
-1.95203 -3.62933 19.2449
-1.92682 -3.63078 19.2648
-1.90604 -3.63495 19.2784
-1.88553 -3.64026 19.3
-1.8589 -3.63749 19.2916
-1.83912 -3.64434 19.3212
-1.81704 -3.64767 19.3351
-1.79 -3.64318 19.3147
-1.76982 -3.65005 19.346
-1.74819 -3.65539 19.3732
-1.7227 -3.6553 19.3796
-1.70097 -3.66065 19.4068
-1.68314 -3.66944 19.4371
-1.66134 -3.67365 19.4546
-1.6359 -3.67392 19.4627
-1.61559 -3.67981 19.4838
-1.59209 -3.6828 19.5013
-1.56602 -3.68254 19.5084
-1.54404 -3.68561 19.5167
-1.52327 -3.69301 19.5513
-1.5016 -3.69903 19.58
-1.48087 -3.70564 19.6071
-1.45839 -3.71026 19.6291
-1.43563 -3.71358 19.6425
-1.41238 -3.71437 19.6396
-1.38041 -3.70793 19.6337
-1.36173 -3.71064 19.6184
-1.33793 -3.71082 19.6142
-1.23131 -3.70129 19.5891
-1.20758 -3.70149 19.585
-1.18441 -3.7043 19.5963
-1.16068 -3.7045 19.5921
-1.137 -3.70708 19.6044
-1.11349 -3.71121 19.6262
-1.09098 -3.71295 19.6259
-1.06507 -3.71452 19.6428
-1.04198 -3.71867 19.6617
-1.02134 -3.72318 19.6697
-0.995124 -3.72345 19.6788
-0.9689 -3.72371 19.6879
-0.945246 -3.72479 19.6886
-0.921822 -3.72762 19.6997
-0.900473 -3.73394 19.7225
-0.875943 -3.73504 19.7276
-0.851402 -3.73614 19.7327
-0.828154 -3.74164 19.7593
-0.802997 -3.74789 19.8001
-0.781828 -3.75642 19.8345
-0.756438 -3.76096 19.8647
-0.736081 -3.76961 19.895
-0.712106 -3.77196 19.9036
-0.68979 -3.78211 19.9521
-0.665495 -3.79176 20.0069
-0.643558 -3.8022 20.0539
-0.6203 -3.81289 20.1085
-0.597783 -3.82382 20.1602
-0.575441 -3.83161 20.1915
-0.550288 -3.83957 20.2371
-0.527581 -3.84593 20.2607
-0.505233 -3.85587 20.3034
-0.480219 -3.86312 20.3426
-0.456517 -3.86952 20.3701
-0.383126 -3.87838 20.4021
-0.355827 -3.87871 20.4109
-0.331395 -3.87886 20.4051
-0.305467 -3.88051 20.4147
-0.27674 -3.87954 20.4225
-0.256131 -3.8813 20.4081
-0.225326 -3.87441 20.3927
-0.198133 -3.87289 20.3904
-0.173931 -3.87118 20.3737
-0.147009 -3.86686 20.3552
-0.12048 -3.85885 20.3151
-0.102008 -3.86142 20.2966
-0.0726158 -3.85362 20.2711
-0.0472423 -3.8511 20.2563
-0.0227048 -3.85038 20.2475
0.00867666 -3.84366 20.237
0.0330973 -3.84248 20.2255
0.05865 -3.84229 20.2241
0.0809408 -3.85149 20.2573
0.107915 -3.86374 20.3257
-3.27412 -4.11576 21.7195
-3.24425 -4.11441 21.729
-3.21714 -4.11517 21.7378
-2.97223 -3.88196 20.6162
-2.94759 -3.88136 20.5973
-2.91241 -3.87125 20.5603
-2.88444 -3.86729 20.5324
-2.85321 -3.86093 20.5058
-2.82466 -3.85711 20.4859
-2.72182 -3.78927 20.1498
-2.64175 -3.71877 19.8152
-2.60915 -3.70929 19.7741
-2.57454 -3.69506 19.6975
-2.54173 -3.68576 19.662
-2.50723 -3.67424 19.6168
-2.49179 -3.6838 19.646
-2.46087 -3.67455 19.5975
-2.42456 -3.659 19.5259
-2.40067 -3.65916 19.5228
-2.36624 -3.64746 19.4788
-2.34378 -3.64907 19.4801
-2.31496 -3.64318 19.4536
-2.28689 -3.63775 19.4265
-2.24949 -3.61946 19.3413
-2.22902 -3.62284 19.3464
-2.19485 -3.60847 19.2782
-2.1608 -3.59476 19.2168
-2.14421 -3.60353 19.2467
-2.11351 -3.5949 19.2112
-2.09 -3.59621 19.2192
-2.06543 -3.59551 19.2157
-2.03977 -3.59209 19.1946
-2.0177 -3.59342 19.1926
-1.99288 -3.59398 19.2026
-1.96926 -3.59518 19.2101
-1.94536 -3.59537 19.2101
-1.92186 -3.59585 19.2101
-1.89872 -3.59685 19.2121
-1.87389 -3.59721 19.2199
-1.85137 -3.60057 19.2384
-1.82966 -3.60282 19.2415
-1.80739 -3.60686 19.2637
-1.7862 -3.61194 19.2874
-1.76085 -3.61073 19.2841
-1.74131 -3.61641 19.3016
-1.71461 -3.61558 19.3102
-1.69652 -3.62434 19.3434
-1.6733 -3.62618 19.3515
-1.65253 -3.63354 19.3892
-1.62627 -3.63061 19.377
-1.60953 -3.6422 19.4228
-1.58256 -3.6409 19.428
-1.5622 -3.64717 19.4527
-1.53979 -3.65105 19.4705
-1.51562 -3.65388 19.4906
-1.49706 -3.66152 19.5139
-1.47621 -3.66775 19.5396
-1.453 -3.67508 19.5875
-1.42974 -3.67945 19.6125
-1.40672 -3.68173 19.6197
-1.37923 -3.67726 19.6023
-1.35679 -3.6783 19.5968
-1.23307 -3.67763 19.5927
-1.20934 -3.67783 19.5886
-1.18161 -3.67375 19.5764
-1.16208 -3.67909 19.5854
-1.13602 -3.67934 19.5946
-1.10995 -3.67959 19.6037
-1.08902 -3.68385 19.6123
-1.06391 -3.6858 19.6277
-1.04059 -3.69063 19.653
-1.01957 -3.6949 19.6615
-0.992194 -3.69316 19.6634
-0.967973 -3.69615 19.6803
-0.94442 -3.69785 19.6847
-0.920844 -3.70218 19.7066
-0.89794 -3.70651 19.7247
-0.874163 -3.70754 19.7255
-0.851356 -3.71153 19.7404
-0.827731 -3.71666 19.7668
-0.803296 -3.72112 19.7927
-0.780996 -3.72948 19.8322
-0.756897 -3.73371 19.8541
-0.733791 -3.74082 19.8889
-0.710929 -3.747 19.9161
-0.689662 -3.75831 19.9669
-0.664796 -3.76427 20.0019
-0.641962 -3.7731 20.044
-0.619217 -3.78493 20.1035
-0.59771 -3.79432 20.1413
-0.573438 -3.80164 20.1796
-0.549677 -3.80835 20.2113
-0.526104 -3.81591 20.2468
-0.501371 -3.82598 20.3023
-0.478939 -3.8359 20.3451
-0.456098 -3.84153 20.3641
-0.428605 -3.8461 20.399
-0.400893 -3.84778 20.4177
-0.357476 -3.858 20.4373
-0.33112 -3.85734 20.4357
-0.305231 -3.85891 20.4447
-0.278345 -3.85789 20.4435
-0.255323 -3.85888 20.4358
-0.22485 -3.85384 20.4287
-0.19966 -3.85127 20.4114
-0.174016 -3.84873 20.3964
-0.149409 -3.84614 20.3767
-0.121845 -3.83821 20.3413
-0.0978561 -3.83562 20.3192
-0.0685361 -3.82692 20.2884
-0.0454131 -3.8285 20.2853
-0.0188879 -3.82553 20.2731
0.00763142 -3.82037 20.2494
0.0330347 -3.81881 20.2399
0.0558199 -3.82074 20.2376
0.0797583 -3.82818 20.2688
0.105731 -3.83992 20.3308
-3.27514 -4.08994 21.7418
-3.24692 -4.08966 21.7482
-3.21996 -4.0909 21.7621
-3.00578 -3.864 20.6548
-2.97184 -3.8546 20.6125
-2.94497 -3.85177 20.5866
-2.91257 -3.84433 20.556
-2.88714 -3.84343 20.5418
-2.8514 -3.83229 20.498
-2.8229 -3.82961 20.4915
-2.73865 -3.75384 20.1154
-2.6154 -3.65857 19.6454
-2.58055 -3.64476 19.5751
-2.55173 -3.64004 19.5579
-2.52969 -3.64332 19.574
-2.50336 -3.64116 19.5649
-2.47785 -3.63929 19.5525
-2.4508 -3.63598 19.5372
-2.41722 -3.62319 19.473
-2.39207 -3.6208 19.4533
-2.36043 -3.6132 19.4305
-2.33522 -3.6119 19.4236
-2.30263 -3.60036 19.368
-2.27219 -3.5907 19.3164
-2.24191 -3.58157 19.2698
-2.21353 -3.57583 19.2438
-2.18643 -3.5716 19.2237
-2.15933 -3.56761 19.2063
-2.13442 -3.56628 19.1993
-2.10952 -3.56496 19.1923
-2.08409 -3.56271 19.1804
-2.05914 -3.56076 19.168
-2.03576 -3.56097 19.165
-2.01238 -3.56117 19.162
-1.98705 -3.55893 19.15
-1.96512 -3.56157 19.1595
-1.9405 -3.56213 19.1683
-1.91663 -3.56362 19.1804
-1.89324 -3.56427 19.1814
-1.87119 -3.56675 19.1895
-1.84883 -3.56863 19.1943
-1.82447 -3.56882 19.1974
-1.80111 -3.57069 19.2086
-1.7797 -3.57425 19.2213
-1.75678 -3.57572 19.2256
-1.73316 -3.57883 19.2486
-1.71098 -3.58239 19.2655
-1.68986 -3.58709 19.2849
-1.6656 -3.58885 19.2996
-1.64649 -3.59565 19.3228
-1.62286 -3.59614 19.3225
-1.60108 -3.60281 19.3609
-1.57962 -3.60844 19.3883
-1.55486 -3.61016 19.4044
-1.53486 -3.61591 19.4229
-1.51287 -3.62033 19.4427
-1.49512 -3.63277 19.4996
-1.46949 -3.63126 19.4942
-1.44691 -3.63627 19.5211
-1.42759 -3.64729 19.5745
-1.40237 -3.64698 19.5754
-1.38104 -3.65287 19.6003
-1.35878 -3.65548 19.6055
-1.33478 -3.65481 19.5962
-1.1588 -3.65377 19.6054
-1.13736 -3.65602 19.6029
-1.11186 -3.65677 19.6125
-1.08813 -3.65698 19.6083
-1.06488 -3.65978 19.6195
-1.04248 -3.66778 19.6619
-1.01872 -3.66798 19.6575
-0.992817 -3.66786 19.6624
-0.968669 -3.67106 19.6805
-0.945768 -3.67386 19.6889
-0.92213 -3.67877 19.7152
-0.89766 -3.67952 19.7179
-0.873686 -3.68025 19.7178
-0.851208 -3.68602 19.7429
-0.828389 -3.69096 19.764
-0.802865 -3.6961 19.8002
-0.780571 -3.70207 19.8245
-0.757228 -3.71055 19.8701
-0.732577 -3.71254 19.8803
-0.712028 -3.72327 19.9249
-0.688692 -3.73324 19.9781
-0.665863 -3.73875 20.0003
-0.642878 -3.74571 20.0319
-0.618546 -3.75615 20.0913
-0.59657 -3.76545 20.1313
-0.572616 -3.77269 20.1679
-0.548582 -3.77994 20.2046
-0.526874 -3.78968 20.2443
-0.503114 -3.80041 20.2994
-0.480509 -3.81096 20.3472
-0.456433 -3.8168 20.3736
-0.430352 -3.82338 20.4137
-0.38371 -3.83336 20.4477
-0.353475 -3.83385 20.4711
-0.32895 -3.83494 20.4708
-0.304428 -3.83603 20.4704
-0.279864 -3.83805 20.4755
-0.254072 -3.83551 20.4605
-0.22919 -3.83478 20.4516
-0.173105 -3.8263 20.4241
-0.123215 -3.81753 20.3676
-0.0992859 -3.81404 20.3401
-0.0697412 -3.8072 20.3199
-0.0457359 -3.80555 20.3032
-0.0219895 -3.80209 20.2758
0.00215575 -3.80227 20.2699
0.0317317 -3.7973 20.2606
0.0566074 -3.80296 20.2869
0.0811375 -3.80588 20.297
0.107215 -3.8187 20.3653
-3.27823 -4.06486 21.7525
-3.25017 -4.06506 21.764
-3.21979 -4.0621 21.7564
-3.01021 -3.84038 20.6525
-2.97335 -3.82922 20.6156
-2.94301 -3.82317 20.5816
-2.91474 -3.81948 20.5584
-2.61651 -3.60422 19.5121
-2.59136 -3.60291 19.503
-2.56492 -3.60053 19.4927
-2.54513 -3.6053 19.5077
-2.51701 -3.60199 19.5012
-2.49424 -3.605 19.521
-2.47185 -3.6069 19.5248
-2.43619 -3.59096 19.4417
-2.41165 -3.59012 19.4338
-2.38422 -3.5863 19.4174
-2.35499 -3.58022 19.3915
-2.32026 -3.56516 19.3148
-2.29125 -3.55859 19.2836
-2.26278 -3.55288 19.2577
-2.23616 -3.54942 19.2411
-2.21289 -3.54949 19.2352
-2.1809 -3.53839 19.1826
-2.15877 -3.54108 19.195
-2.13253 -3.53764 19.1768
-2.10405 -3.53329 19.1667
-2.07817 -3.53012 19.1493
-2.05404 -3.52968 19.1457
-2.03069 -3.5299 19.1427
-2.007 -3.52948 19.1363
-1.98359 -3.52996 19.1364
-1.96026 -3.53018 19.1333
-1.93694 -3.5304 19.1303
-1.91294 -3.53205 19.1452
-1.88899 -3.53322 19.1552
-1.86597 -3.53454 19.1598
-1.84665 -3.53976 19.1742
-1.82333 -3.54036 19.1742
-1.79882 -3.54134 19.1855
-1.77386 -3.54171 19.1943
-1.75171 -3.54332 19.1952
-1.73241 -3.54966 19.2179
-1.70719 -3.55033 19.2305
-1.68413 -3.55253 19.2418
-1.66327 -3.5574 19.2612
-1.63978 -3.55797 19.2611
-1.61754 -3.5629 19.2893
-1.59891 -3.56984 19.3106
-1.57442 -3.57251 19.3337
-1.55344 -3.57784 19.3559
-1.53044 -3.58039 19.3679
-1.50698 -3.58387 19.3901
-1.48991 -3.59438 19.4283
-1.46469 -3.59592 19.4449
-1.44432 -3.60552 19.4951
-1.42058 -3.60881 19.5158
-1.40178 -3.61801 19.552
-1.37599 -3.61873 19.5645
-1.35679 -3.62692 19.5944
-1.3306 -3.62543 19.5919
-1.305 -3.62597 19.6013
-1.26072 -3.63177 19.6143
-1.18792 -3.63242 19.6108
-1.16419 -3.63263 19.6066
-1.13985 -3.63371 19.6121
-1.11376 -3.63394 19.6213
-1.09003 -3.63416 19.617
-1.06463 -3.63503 19.6268
-1.04129 -3.63948 19.6498
-1.01733 -3.63998 19.6487
-0.993426 -3.64227 19.6595
-0.970077 -3.64731 19.686
-0.947114 -3.64986 19.6931
-0.921913 -3.65192 19.7087
-0.899054 -3.65505 19.7188
-0.875519 -3.65734 19.7268
-0.852211 -3.66079 19.7411
-0.829815 -3.66619 19.7632
-0.803089 -3.67 19.7973
-0.782083 -3.67767 19.8262
-0.75742 -3.68342 19.8613
-0.733295 -3.68898 19.8919
-0.713074 -3.69702 19.9179
-0.688818 -3.70632 19.9721
-0.666747 -3.71517 20.0117
-0.642685 -3.72044 20.0384
-0.619255 -3.72891 20.0815
-0.595788 -3.73819 20.1291
-0.572145 -3.74729 20.176
-0.549423 -3.7559 20.2147
-0.528644 -3.76386 20.2393
-0.504284 -3.77372 20.2926
-0.480257 -3.78294 20.3398
-0.456183 -3.79041 20.3762
-0.431397 -3.79855 20.4196
-0.40717 -3.80515 20.4506
-0.382983 -3.81044 20.4734
-0.355178 -3.81117 20.4867
-0.332021 -3.81404 20.49
-0.305128 -3.81671 20.5099
-0.281296 -3.82001 20.5186
-0.251191 -3.81494 20.5091
-0.226811 -3.81326 20.4922
-0.202471 -3.81159 20.4753
-0.175396 -3.80731 20.4566
-0.148529 -3.80121 20.4271
-0.119059 -3.7916 20.3904
-0.0977817 -3.79165 20.37
-0.076536 -3.79169 20.3495
-0.0455812 -3.78404 20.3312
-0.0201673 -3.78157 20.3163
0.00105863 -3.78253 20.3014
0.0283754 -3.78004 20.295
0.0554555 -3.7823 20.313
0.0808017 -3.78634 20.3325
0.104671 -3.79538 20.3716
-3.25207 -4.04017 21.791
-3.00417 -3.80797 20.6388
-2.97373 -3.80291 20.6178
-2.68916 -3.57829 19.5106
-2.65973 -3.57327 19.4948
-2.63702 -3.57349 19.4822
-2.60832 -3.56825 19.4578
-2.58236 -3.56614 19.4468
-2.55718 -3.56478 19.438
-2.53177 -3.56418 19.4402
-2.50764 -3.56513 19.4492
-2.48386 -3.56532 19.4464
-2.46007 -3.5655 19.4435
-2.43453 -3.5635 19.4309
-2.4024 -3.55455 19.3963
-2.37567 -3.55093 19.3765
-2.34101 -3.53582 19.297
-2.31059 -3.52808 19.264
-2.28561 -3.52631 19.2519
-2.25783 -3.52028 19.217
-2.22996 -3.51546 19.1963
-2.20433 -3.51155 19.168
-2.17846 -3.50925 19.1584
-2.15322 -3.50698 19.1445
-2.12847 -3.50585 19.1386
-2.10091 -3.50155 19.1224
-2.07667 -3.50172 19.1258
-2.05243 -3.5019 19.1293
-2.02825 -3.49969 19.1091
-2.00491 -3.50087 19.1155
-1.98074 -3.50078 19.1159
-1.95681 -3.50125 19.1197
-1.93352 -3.50147 19.1167
-1.91066 -3.50267 19.1197
-1.88739 -3.50338 19.1209
-1.86301 -3.50391 19.1282
-1.8393 -3.50522 19.1378
-1.816 -3.50545 19.1347
-1.79485 -3.51024 19.1577
-1.77061 -3.50885 19.1465
-1.74964 -3.51314 19.1633
-1.72472 -3.51321 19.1693
-1.70264 -3.51736 19.1919
-1.6784 -3.5181 19.1989
-1.65581 -3.52086 19.2122
-1.63553 -3.52545 19.2257
-1.61448 -3.53037 19.2467
-1.58989 -3.53111 19.2552
-1.57022 -3.54038 19.3029
-1.54464 -3.53921 19.3014
-1.5238 -3.54492 19.3262
-1.50361 -3.55185 19.3563
-1.48079 -3.55538 19.375
-1.46123 -3.56243 19.4012
-1.4383 -3.56689 19.4272
-1.41719 -3.57266 19.4521
-1.39217 -3.5737 19.4633
-1.37098 -3.58123 19.5015
-1.3479 -3.58595 19.5289
-1.32789 -3.59408 19.5636
-1.30326 -3.59503 19.5706
-1.27931 -3.59532 19.5686
-1.25325 -3.59318 19.5606
-1.23043 -3.5962 19.5723
-1.20673 -3.59744 19.5757
-1.18331 -3.59893 19.5794
-1.15931 -3.59958 19.58
-1.13501 -3.60066 19.5855
-1.10896 -3.60088 19.5948
-1.08527 -3.60111 19.5906
-1.06344 -3.60729 19.6181
-1.04032 -3.61092 19.6345
-1.01568 -3.61047 19.6306
-0.99231 -3.61479 19.6528
-0.966629 -3.61631 19.6681
-0.943583 -3.61891 19.6762
-0.920739 -3.62381 19.6987
-0.897149 -3.62744 19.7163
-0.873852 -3.62941 19.7209
-0.851416 -3.63362 19.7358
-0.826972 -3.63926 19.7707
-0.803743 -3.64457 19.7965
-0.780059 -3.65036 19.8274
-0.756633 -3.65578 19.8542
-0.734305 -3.66469 19.8975
-0.710726 -3.66985 19.9225
-0.686717 -3.67699 19.9621
-0.665551 -3.68649 20.0016
-0.640012 -3.69215 20.0385
-0.617184 -3.69999 20.075
-0.596399 -3.70839 20.1041
-0.572616 -3.71755 20.1525
-0.54878 -3.72517 20.1912
-0.525686 -3.7351 20.2397
-0.501257 -3.74256 20.2793
-0.476676 -3.74984 20.3179
-0.45288 -3.75734 20.3536
-0.43023 -3.76992 20.4135
-0.405007 -3.77569 20.4448
-0.382673 -3.78292 20.4703
-0.356907 -3.78755 20.4968
-0.330047 -3.78839 20.506
-0.306423 -3.79514 20.534
-0.280199 -3.79374 20.5269
-0.255671 -3.79392 20.521
-0.226885 -3.79155 20.5206
-0.201095 -3.78905 20.5056
-0.149858 -3.78131 20.459
-0.0750988 -3.76836 20.3741
-0.0425843 -3.76078 20.3629
-0.0186693 -3.75827 20.3408
0.00542582 -3.75757 20.3295
0.0311054 -3.75739 20.3281
0.0556692 -3.7603 20.3383
0.0796923 -3.76994 20.3818
-2.80485 -3.57404 19.6118
-2.77399 -3.56647 19.5744
-2.74062 -3.55511 19.5133
-2.71425 -3.55272 19.5013
-2.6877 -3.54927 19.4778
-2.65828 -3.54386 19.4573
-2.63447 -3.54429 19.4574
-2.60742 -3.541 19.4417
-2.57882 -3.53572 19.4164
-2.55506 -3.53591 19.4137
-2.53024 -3.53604 19.4195
-2.50671 -3.53868 19.4433
-2.48216 -3.53785 19.4355
-2.45682 -3.5365 19.4284
-2.43257 -3.53586 19.4203
-2.40174 -3.5268 19.3732
-2.37359 -3.52072 19.3379
-2.3394 -3.50857 19.2863
-2.30841 -3.49976 19.246
-2.28662 -3.50006 19.2303
-2.25972 -3.49611 19.2104
-2.22993 -3.48883 19.1787
-2.20608 -3.48823 19.1708
-2.1805 -3.48595 19.159
-2.15279 -3.48119 19.1385
-2.12729 -3.47892 19.1268
-2.10437 -3.47996 19.1289
-2.07966 -3.47884 19.123
-2.0564 -3.47954 19.1244
-2.02914 -3.47719 19.1254
-2.00823 -3.47944 19.1244
-1.98252 -3.47764 19.1195
-1.95802 -3.47686 19.1155
-1.93666 -3.47972 19.1235
-1.91373 -3.48076 19.1255
-1.89078 -3.4818 19.1275
-1.86521 -3.48113 19.1321
-1.83997 -3.48127 19.1418
-1.81667 -3.48151 19.1387
-1.79338 -3.48174 19.1355
-1.77009 -3.48198 19.1323
-1.74844 -3.48468 19.14
-1.7264 -3.4888 19.1626
-1.70399 -3.49243 19.1831
-1.67967 -3.49215 19.1819
-1.65574 -3.49405 19.1969
-1.63373 -3.49796 19.2163
-1.61417 -3.50317 19.2304
-1.5898 -3.50289 19.2291
-1.56724 -3.50714 19.2541
-1.54633 -3.51319 19.283
-1.52632 -3.52135 19.3231
-1.50364 -3.52406 19.3348
-1.4817 -3.52925 19.3618
-1.45926 -3.53296 19.3796
-1.43677 -3.53816 19.4093
-1.4151 -3.54339 19.4337
-1.39093 -3.54461 19.4413
-1.36975 -3.55036 19.4661
-1.34749 -3.5556 19.4931
-1.32648 -3.5659 19.5512
-1.30278 -3.56613 19.5473
-1.27947 -3.56787 19.5526
-1.25603 -3.56911 19.5548
-1.23149 -3.57059 19.5652
-1.20866 -3.5736 19.5768
-1.18475 -3.57568 19.5877
-1.16179 -3.5776 19.5917
-1.13665 -3.57819 19.5984
-1.11085 -3.57805 19.6035
-1.08715 -3.57828 19.5993
-1.06392 -3.58105 19.6106
-1.0411 -3.58636 19.6374
-1.01755 -3.5876 19.6394
-0.993014 -3.58885 19.6466
-0.968028 -3.59044 19.6587
-0.947751 -3.59746 19.6823
-0.922175 -3.59989 19.7029
-0.89738 -3.60134 19.7124
-0.877476 -3.60582 19.7157
-0.852099 -3.61082 19.7519
-0.828252 -3.61399 19.7672
-0.805228 -3.62194 19.8097
-0.758436 -3.63273 19.8633
-0.736572 -3.64202 19.907
-0.714088 -3.64439 19.9084
-0.688508 -3.65384 19.9714
-0.667272 -3.66225 20.0045
-0.643454 -3.66667 20.0251
-0.619817 -3.67583 20.0744
-0.596135 -3.68662 20.1335
-0.572268 -3.69587 20.1832
-0.548231 -3.70301 20.22
-0.526289 -3.70904 20.2389
-0.501304 -3.71812 20.2915
-0.481184 -3.72222 20.2888
-0.45687 -3.7314 20.3377
-0.432443 -3.74152 20.3921
-0.40788 -3.7526 20.4523
-0.383199 -3.76281 20.5071
-0.358609 -3.76482 20.5123
-0.33392 -3.76958 20.5341
-0.30774 -3.77395 20.5605
-0.282654 -3.77461 20.5598
-0.258088 -3.7748 20.5538
-0.235451 -3.77582 20.5435
-0.181056 -3.76821 20.5115
-0.127084 -3.75792 20.4631
-0.0733703 -3.74768 20.415
-0.0493571 -3.74518 20.3927
0.00432726 -3.73771 20.3611
0.0285524 -3.73792 20.3551
0.0574291 -3.74599 20.4122
0.0797713 -3.7573 20.4571
-2.83179 -3.55107 19.6211
-2.76831 -3.53273 19.5198
-2.7363 -3.52457 19.4869
-2.70749 -3.51964 19.4657
-2.6812 -3.51727 19.4538
-2.65494 -3.51491 19.4419
-2.62628 -3.51001 19.4207
-2.60252 -3.5102 19.418
-2.57728 -3.50893 19.411
-2.55262 -3.50804 19.4034
-2.52765 -3.50835 19.4128
-2.5029 -3.50878 19.4218
-2.4782 -3.50844 19.421
-2.45491 -3.50901 19.4186
-2.42315 -3.49762 19.3516
-2.39646 -3.49406 19.332
-2.36982 -3.49052 19.3123
-2.33603 -3.47848 19.2582
-2.30785 -3.47227 19.2231
-2.28255 -3.46968 19.2046
-2.25732 -3.46777 19.1932
-2.22809 -3.46158 19.1684
-2.20388 -3.46075 19.1609
-2.17832 -3.45849 19.1492
-2.15063 -3.45376 19.1286
-2.12514 -3.45151 19.1169
-2.10183 -3.45174 19.1141
-2.07845 -3.45222 19.1143
-2.0538 -3.45133 19.1103
-2.0313 -3.45239 19.1096
-2.00535 -3.4496 19.0966
-1.98223 -3.4513 19.1069
-1.9581 -3.45189 19.1136
-1.93446 -3.45193 19.1114
-1.91173 -3.45338 19.1159
-1.88802 -3.45326 19.1125
-1.86362 -3.45395 19.1217
-1.83899 -3.45393 19.1258
-1.81572 -3.45465 19.127
-1.79146 -3.45436 19.126
-1.76889 -3.45565 19.1275
-1.74746 -3.45829 19.1331
-1.72429 -3.4618 19.1584
-1.70214 -3.465 19.1737
-1.67882 -3.46525 19.1704
-1.65347 -3.4654 19.18
-1.63329 -3.47055 19.1984
-1.61194 -3.47447 19.2134
-1.58902 -3.47593 19.2176
-1.56358 -3.47609 19.2271
-1.54559 -3.48617 19.2716
-1.52223 -3.48745 19.2764
-1.50021 -3.49181 19.2981
-1.4791 -3.49776 19.3266
-1.45667 -3.50159 19.3457
-1.43487 -3.50825 19.3836
-1.41317 -3.51222 19.3985
-1.39048 -3.51712 19.4267
-1.36778 -3.52135 19.4492
-1.34554 -3.52656 19.4763
-1.32691 -3.53558 19.5105
-1.30138 -3.53799 19.5349
-1.27754 -3.5385 19.5342
-1.25446 -3.53982 19.5349
-1.23052 -3.54023 19.5339
-1.20772 -3.54422 19.5531
-1.18383 -3.54696 19.569
-1.16146 -3.54972 19.5759
-1.13583 -3.55012 19.5844
-1.11043 -3.55065 19.5923
-1.08571 -3.55038 19.5904
-1.06328 -3.55314 19.5972
-1.04088 -3.55842 19.6218
-1.01654 -3.55916 19.6247
-0.992456 -3.56169 19.6387
-0.96904 -3.56606 19.6618
-0.946251 -3.57092 19.6844
-0.922791 -3.57427 19.6999
-0.899101 -3.57755 19.716
-0.87704 -3.5826 19.735
-0.852737 -3.58515 19.749
-0.83021 -3.59228 19.7841
-0.806209 -3.59584 19.8026
-0.783197 -3.60318 19.8408
-0.759442 -3.60657 19.8563
-0.736485 -3.61533 19.9026
-0.713672 -3.62237 19.9364
-0.689205 -3.62793 19.9686
-0.666521 -3.63618 20.0086
-0.643185 -3.64504 20.0553
-0.619717 -3.65084 20.0825
-0.597979 -3.65923 20.1168
-0.573465 -3.6682 20.1686
-0.550986 -3.67587 20.2012
-0.527969 -3.6819 20.2258
-0.503866 -3.69276 20.2855
-0.480478 -3.7012 20.3259
-0.456375 -3.71029 20.3733
-0.431906 -3.72128 20.4335
-0.406825 -3.72501 20.4521
-0.384342 -3.73526 20.4967
-0.360286 -3.74297 20.5334
-0.335115 -3.74566 20.5454
-0.308369 -3.75126 20.5818
-0.28187 -3.75191 20.5878
-0.257275 -3.75211 20.5819
-0.232366 -3.75286 20.5807
-0.205344 -3.74988 20.5681
-0.178225 -3.74473 20.5438
-0.152521 -3.74136 20.5231
-0.122919 -3.73182 20.4861
-0.104296 -3.73452 20.4672
-0.0746741 -3.72683 20.4413
-0.04831 -3.72335 20.4242
-0.0235774 -3.72197 20.4113
-0.00042348 -3.72125 20.395
0.0260299 -3.72243 20.4042
0.0523696 -3.72272 20.4079
-2.88922 -3.53642 19.686
-2.85538 -3.52492 19.6212
-2.82342 -3.51633 19.5787
-2.79237 -3.50744 19.5239
-2.76007 -3.49895 19.4883
-2.73123 -3.49404 19.4671
-2.70245 -3.48915 19.446
-2.67703 -3.48781 19.4391
-2.64997 -3.48447 19.4222
-2.62378 -3.48213 19.4103
-2.59816 -3.48062 19.4037
-2.57443 -3.48082 19.401
-2.5507 -3.48102 19.3982
-2.52698 -3.48122 19.3955
-2.50113 -3.48049 19.4005
-2.47661 -3.48064 19.4042
-2.45165 -3.4784 19.3836
-2.42236 -3.47115 19.3427
-2.38903 -3.46051 19.2985
-2.36616 -3.45922 19.2725
-2.3357 -3.45147 19.2384
-2.30463 -3.44309 19.2028
-2.28073 -3.4425 19.1949
-2.25507 -3.44025 19.1832
-2.22724 -3.43552 19.1626
-2.20167 -3.43328 19.1509
-2.17787 -3.4327 19.143
-2.14845 -3.42634 19.1187
-2.12299 -3.42411 19.1071
-2.09969 -3.42435 19.1042
-2.07639 -3.42458 19.1014
-2.05311 -3.42482 19.0985
-2.02773 -3.4226 19.0868
-2.00446 -3.42284 19.0839
-1.98065 -3.42304 19.0848
-1.95403 -3.42075 19.082
-1.9322 -3.42406 19.0984
-1.90831 -3.42453 19.1023
-1.88645 -3.42626 19.1032
-1.86221 -3.42597 19.1022
-1.83897 -3.42669 19.1035
-1.81474 -3.42687 19.1068
-1.79052 -3.42753 19.1143
-1.76825 -3.4297 19.122
-1.74499 -3.42995 19.1188
-1.72461 -3.43572 19.1456
-1.69972 -3.43615 19.1551
-1.67698 -3.43784 19.161
-1.65269 -3.43757 19.1598
-1.63128 -3.44075 19.1695
-1.60917 -3.44511 19.194
-1.58724 -3.44847 19.2083
-1.56199 -3.44829 19.2138
-1.54232 -3.45619 19.2513
-1.52045 -3.4589 19.2587
-1.49678 -3.46259 19.2859
-1.47676 -3.46911 19.3127
-1.45377 -3.47083 19.3182
-1.4341 -3.47808 19.3479
-1.40934 -3.47962 19.363
-1.3889 -3.48637 19.3925
-1.36512 -3.48993 19.4169
-1.3422 -3.49426 19.4417
-1.32027 -3.4988 19.4617
-1.30019 -3.50688 19.4977
-1.27699 -3.51119 19.5228
-1.25232 -3.51091 19.5211
-1.22869 -3.51116 19.5171
-1.20677 -3.51491 19.5294
-1.1818 -3.51625 19.5416
-1.15871 -3.52033 19.563
-1.13526 -3.52157 19.5651
-1.11028 -3.52229 19.5721
-1.08425 -3.5225 19.5814
-1.06224 -3.52526 19.586
-1.04114 -3.53053 19.6034
-1.0174 -3.53327 19.6174
-0.992337 -3.534 19.6243
-0.967648 -3.53723 19.6468
-0.945397 -3.54401 19.6803
-0.921866 -3.54577 19.6853
-0.898931 -3.55206 19.7184
-0.876538 -3.55534 19.7272
-0.852297 -3.56013 19.7564
-0.830128 -3.56595 19.7808
-0.806432 -3.57229 19.8168
-0.782405 -3.57609 19.8369
-0.759315 -3.58502 19.886
-0.735641 -3.58833 19.9002
-0.71442 -3.59677 19.935
-0.688921 -3.60527 19.9923
-0.66614 -3.60859 20.0009
-0.644252 -3.61866 20.0482
-0.620551 -3.62669 20.0913
-0.597934 -3.63082 20.1032
-0.572766 -3.64022 20.1616
-0.551608 -3.65091 20.2068
-0.52748 -3.65641 20.2339
-0.502794 -3.66563 20.2868
-0.480205 -3.67324 20.3183
-0.45755 -3.68354 20.3663
-0.432696 -3.69408 20.4262
-0.411384 -3.70265 20.4556
-0.38539 -3.70694 20.4821
-0.362057 -3.71746 20.5324
-0.337438 -3.71947 20.5376
-0.309648 -3.72791 20.5965
-0.282062 -3.72912 20.611
-0.257346 -3.73114 20.6161
-0.232839 -3.72952 20.599
-0.206388 -3.72798 20.5918
-0.15386 -3.72129 20.5553
-0.0998524 -3.7111 20.5067
0.00223979 -3.69873 20.43
-2.91712 -3.51482 19.7077
-2.87925 -3.4993 19.6256
-2.85499 -3.49829 19.6083
-2.8221 -3.48767 19.5465
-2.78635 -3.47586 19.499
-2.75793 -3.47135 19.4782
-2.7308 -3.46783 19.4584
-2.70426 -3.46547 19.4487
-2.67642 -3.46121 19.4267
-2.64906 -3.45812 19.416
-2.62314 -3.45598 19.4038
-2.6009 -3.45754 19.4043
-2.57782 -3.45873 19.4079
-2.55408 -3.45894 19.4052
-2.52781 -3.45708 19.4003
-2.50255 -3.45663 19.4037
-2.47536 -3.45245 19.3791
-2.44576 -3.44569 19.346
-2.41851 -3.44099 19.317
-2.38921 -3.43336 19.2723
-2.36085 -3.42767 19.2428
-2.3335 -3.42339 19.2214
-2.30637 -3.41971 19.2055
-2.28141 -3.41844 19.1986
-2.25504 -3.41523 19.1821
-2.22871 -3.41202 19.1656
-2.20384 -3.41076 19.1587
-2.17611 -3.40608 19.1382
-2.14991 -3.40289 19.1217
-2.12512 -3.40164 19.1148
-2.10035 -3.4004 19.108
-2.07706 -3.40064 19.1051
-2.05099 -3.39748 19.0887
-2.02696 -3.39668 19.0811
-2.00174 -3.39456 19.0694
-1.97884 -3.39575 19.0733
-1.95453 -3.395 19.0686
-1.92978 -3.39503 19.0749
-1.90716 -3.39749 19.089
-1.88446 -3.39893 19.0936
-1.86122 -3.39918 19.0905
-1.83788 -3.39968 19.0906
-1.81426 -3.39966 19.0876
-1.79081 -3.4022 19.1076
-1.76968 -3.40629 19.1251
-1.74642 -3.40654 19.122
-1.72249 -3.40768 19.1316
-1.69806 -3.40833 19.1401
-1.67513 -3.41047 19.1515
-1.65252 -3.41176 19.1529
-1.63104 -3.41439 19.1584
-1.60879 -3.41897 19.1861
-1.58559 -3.42079 19.1958
-1.56199 -3.42156 19.1986
-1.5403 -3.42661 19.2256
-1.51871 -3.43141 19.2494
-1.4963 -3.43461 19.2645
-1.47558 -3.44159 19.3001
-1.45235 -3.44245 19.3003
-1.43166 -3.45026 19.3416
-1.40829 -3.45307 19.3584
-1.38648 -3.4585 19.3863
-1.36365 -3.46199 19.4045
-1.34057 -3.46357 19.4086
-1.31929 -3.47066 19.4453
-1.29607 -3.47385 19.4626
-1.2778 -3.48395 19.5034
-1.25392 -3.48566 19.5124
-1.2306 -3.48836 19.5256
-1.20737 -3.49038 19.5326
-1.18215 -3.49178 19.5469
-1.15846 -3.49399 19.5579
-1.13507 -3.49549 19.5616
-1.11161 -3.49838 19.576
-1.08731 -3.49967 19.5833
-1.06435 -3.50159 19.5872
-1.04154 -3.5041 19.5945
-1.01793 -3.50734 19.6116
-0.993802 -3.50978 19.6256
-0.968073 -3.51331 19.6563
-0.947008 -3.51958 19.6797
-0.922774 -3.52215 19.6944
-0.900415 -3.52659 19.7116
-0.878354 -3.53236 19.736
-0.854424 -3.53629 19.7577
-0.831613 -3.54158 19.7823
-0.808329 -3.54808 19.8174
-0.784202 -3.55302 19.8459
-0.76155 -3.55871 19.8712
-0.737431 -3.5652 19.9093
-0.716076 -3.5727 19.9388
-0.690898 -3.57863 19.9779
-0.667917 -3.58537 20.0101
-0.645681 -3.59453 20.0538
-0.62191 -3.60109 20.088
-0.598351 -3.60751 20.1197
-0.574527 -3.61684 20.1711
-0.553365 -3.62749 20.2163
-0.528437 -3.6326 20.2453
-0.505064 -3.64002 20.2805
-0.48175 -3.64832 20.3203
-0.458723 -3.65681 20.3593
-0.434287 -3.66765 20.4195
-0.409916 -3.67526 20.4587
-0.385689 -3.68331 20.4994
-0.361886 -3.6929 20.5468
-0.336466 -3.69942 20.5831
-0.310926 -3.70454 20.6111
-0.285144 -3.7071 20.6248
-0.263163 -3.71264 20.6373
-0.237201 -3.71018 20.622
-0.205944 -3.70609 20.623
-0.182409 -3.70537 20.6065
-0.160832 -3.70549 20.5855
-0.128204 -3.69518 20.5577
-0.106736 -3.69532 20.5368
-0.0797857 -3.69025 20.5125
-0.0513693 -3.68524 20.4957
-0.0285079 -3.68543 20.4822
0.020111 -3.68499 20.4646
-2.91883 -3.48872 19.6806
-2.87988 -3.47399 19.6206
-2.84226 -3.45845 19.5361
-2.81012 -3.45022 19.5002
-2.78313 -3.44706 19.483
-2.7525 -3.43976 19.4461
-2.72625 -3.4373 19.4318
-2.70104 -3.436 19.4233
-2.67506 -3.43371 19.4092
-2.64571 -3.4294 19.4019
-2.62063 -3.42816 19.3934
-2.59841 -3.42972 19.3939
-2.57375 -3.42939 19.3933
-2.55003 -3.4296 19.3906
-2.52395 -3.42731 19.3787
-2.49554 -3.42253 19.3577
-2.46954 -3.42026 19.3459
-2.44159 -3.41507 19.3167
-2.40793 -3.40219 19.2469
-2.38492 -3.40276 19.2438
-2.35778 -3.39913 19.2277
-2.32837 -3.39301 19.2029
-2.30408 -3.3922 19.1954
-2.27981 -3.39139 19.1879
-2.25278 -3.38775 19.172
-2.22789 -3.3865 19.1652
-2.20243 -3.38436 19.1534
-2.17538 -3.38015 19.1322
-2.15057 -3.37891 19.1254
-2.12578 -3.37768 19.1185
-2.09966 -3.37453 19.1021
-2.07359 -3.37138 19.0857
-2.05032 -3.37163 19.0828
-2.02419 -3.36893 19.072
-1.99898 -3.36683 19.0602
-1.97576 -3.36709 19.0574
-1.9518 -3.36631 19.0498
-1.92763 -3.36604 19.049
-1.90351 -3.36667 19.0567
-1.87889 -3.36681 19.0632
-1.8552 -3.36703 19.0634
-1.83201 -3.3673 19.0604
-1.80953 -3.36858 19.0621
-1.78683 -3.37109 19.0767
-1.76606 -3.3767 19.1066
-1.74326 -3.3775 19.1054
-1.71991 -3.37801 19.1053
-1.69619 -3.37928 19.1148
-1.67027 -3.3774 19.1109
-1.65001 -3.38338 19.1388
-1.62989 -3.38748 19.1482
-1.60716 -3.38902 19.1527
-1.58313 -3.38991 19.1601
-1.55809 -3.38939 19.1618
-1.53857 -3.39659 19.1936
-1.51536 -3.39919 19.2096
-1.49171 -3.40125 19.2238
-1.47378 -3.40963 19.2536
-1.45044 -3.41146 19.2631
-1.4295 -3.42051 19.3172
-1.40735 -3.42483 19.3391
-1.38598 -3.42987 19.3614
-1.36163 -3.43078 19.3686
-1.33906 -3.43524 19.3931
-1.31819 -3.44033 19.4116
-1.29272 -3.44064 19.4205
-1.27383 -3.4503 19.4624
-1.25029 -3.45249 19.4735
-1.22875 -3.45935 19.5087
-1.20543 -3.46084 19.5125
-1.18147 -3.46297 19.525
-1.15799 -3.46669 19.5465
-1.13456 -3.46793 19.5487
-1.11126 -3.47189 19.5704
-1.08545 -3.47181 19.5765
-1.06398 -3.47529 19.5834
-1.04064 -3.4773 19.5903
-1.01611 -3.4795 19.6052
-0.991951 -3.48243 19.6232
-0.969047 -3.48762 19.6501
-0.946089 -3.49284 19.677
-0.923417 -3.49669 19.6921
-0.899972 -3.50158 19.7188
-0.876456 -3.5049 19.7343
-0.853518 -3.51046 19.7621
-0.829939 -3.51516 19.7871
-0.807108 -3.5226 19.8264
-0.78482 -3.5284 19.851
-0.760318 -3.53318 19.8804
-0.738293 -3.54136 19.9188
-0.713287 -3.5438 19.9343
-0.689769 -3.55306 19.9871
-0.669425 -3.56076 20.0118
-0.644835 -3.56697 20.0489
-0.621096 -3.57389 20.0856
-0.599631 -3.58094 20.1108
-0.575629 -3.59035 20.164
-0.551808 -3.59777 20.2028
-0.52811 -3.60431 20.235
-0.50363 -3.61006 20.2656
-0.480275 -3.61836 20.3061
-0.455968 -3.62909 20.3661
-0.431525 -3.63987 20.4264
-0.409258 -3.64747 20.4553
-0.387125 -3.65562 20.4863
-0.359972 -3.66122 20.5267
