0.718399 -3.88489 19.3702
0.744045 -3.88502 19.3744
0.76975 -3.88563 19.3808
0.793389 -3.88325 19.3671
0.816876 -3.88545 19.3724
0.842011 -3.88574 19.3753
0.867584 -3.88595 19.3795
0.890687 -3.88703 19.3786
0.914379 -3.88841 19.3809
0.938621 -3.89019 19.3869
0.964521 -3.8932 19.4036
0.989445 -3.89498 19.4117
1.01453 -3.89911 19.4299
1.0367 -3.90362 19.4395
1.05947 -3.90381 19.4336
1.0826 -3.90489 19.4325
1.10739 -3.90434 19.4304
1.12807 -3.90527 19.4205
1.15944 -3.90081 19.425
1.18351 -3.89327 19.3929
1.20578 -3.89171 19.3787
1.22722 -3.88008 19.3223
1.24881 -3.87816 19.3048
1.27146 -3.87786 19.2972
1.29532 -3.87093 19.268
1.31779 -3.87114 19.2621
1.34351 -3.87174 19.2682
1.36925 -3.87196 19.2729
1.39263 -3.87222 19.2701
1.41562 -3.87275 19.2672
1.43781 -3.8723 19.2579
1.46037 -3.87147 19.2484
1.48385 -3.86549 19.2227
1.50671 -3.86319 19.2089
1.5296 -3.86372 19.2059
1.55271 -3.85777 19.1795
1.57509 -3.85518 19.1635
1.59781 -3.85402 19.1539
1.62196 -3.85638 19.1617
1.64847 -3.85828 19.1751
1.67233 -3.86203 19.1869
1.69842 -3.8637 19.198
1.72524 -3.86834 19.2219
1.75148 -3.87431 19.2485
1.7739 -3.87736 19.253
1.79604 -3.87813 19.2485
1.81852 -3.87879 19.2445
1.84394 -3.87793 19.2441
1.86888 -3.87882 19.2484
1.89298 -3.87893 19.2475
1.91891 -3.88518 19.2734
1.94651 -3.89081 19.302
1.973 -3.89893 19.3356
2.00444 -3.90892 19.39
2.03038 -3.9155 19.4162
2.05694 -3.92522 19.4546
2.08769 -3.93266 19.4973
2.11167 -3.94173 19.5254
2.14973 -3.96111 19.6291
2.21169 -4.03076 19.9704
2.23787 -4.03637 19.9912
2.26596 -4.04417 20.0247
2.29272 -4.04996 20.0474
2.318 -4.05686 20.0694
2.34389 -4.05482 20.0634
2.373 -4.05838 20.0851
2.40139 -4.06826 20.1253
2.42706 -4.0694 20.1289
2.45741 -4.07827 20.1708
2.66708 -4.354 21.5023
2.69217 -4.35283 21.492
-0.493497 -3.99069 20.071
-0.465697 -3.98733 20.0631
-0.441641 -3.98459 20.0419
-0.410685 -3.97678 20.0239
-0.388073 -3.97772 20.0168
-0.362984 -3.97643 20.0086
-0.34013 -3.97702 20.0007
-0.314296 -3.97635 19.9993
-0.288381 -3.97759 20.0084
-0.262504 -3.97787 20.0122
-0.23856 -3.97799 20.0067
-0.2117 -3.97836 20.0151
-0.186302 -3.97861 20.0165
-0.16098 -3.97792 20.0127
-0.137075 -3.97804 20.0071
-0.113183 -3.97817 20.0015
-0.0893058 -3.97829 19.9959
-0.0634334 -3.97859 19.9995
-0.0379186 -3.97923 20.0034
-0.010415 -3.97966 20.0144
0.0124003 -3.98119 20.0115
0.0386542 -3.98115 20.0148
0.0630239 -3.98076 20.0088
0.0868438 -3.98089 20.003
0.116214 -3.97311 19.9809
0.141581 -3.96782 19.9551
0.164907 -3.96555 19.936
0.188043 -3.96247 19.9126
0.213363 -3.95447 19.8742
0.240175 -3.94661 19.8429
0.266363 -3.93601 19.7963
0.285338 -3.93719 19.7778
0.31256 -3.92646 19.7354
0.33892 -3.91672 19.6947
0.356623 -3.92009 19.6822
0.383328 -3.90701 19.628
0.409614 -3.89827 19.5928
0.435679 -3.89168 19.567
0.461677 -3.88512 19.5412
0.505848 -3.87633 19.4808
0.528529 -3.87517 19.4678
0.553055 -3.8678 19.4339
0.576902 -3.86647 19.4248
0.60075 -3.86409 19.4111
0.625074 -3.86122 19.3971
0.649484 -3.85766 19.3806
0.672354 -3.85786 19.375
0.695209 -3.85806 19.3694
0.719745 -3.85662 19.3628
0.744501 -3.85728 19.3662
0.769933 -3.85729 19.3691
0.792741 -3.85749 19.3635
0.817036 -3.85813 19.365
0.845071 -3.85507 19.3641
0.86739 -3.85674 19.363
0.892042 -3.8551 19.3562
0.914469 -3.8614 19.3749
0.940187 -3.86282 19.3845
0.96499 -3.86463 19.3925
0.989222 -3.86812 19.4054
1.01504 -3.86903 19.413
1.03851 -3.87101 19.4169
1.06162 -3.8721 19.4159
1.08435 -3.8723 19.4099
1.13391 -3.87244 19.411
1.16009 -3.86707 19.3944
1.18012 -3.86823 19.3834
1.20229 -3.85936 19.3398
1.22631 -3.85168 19.3074
1.24938 -3.84723 19.2849
1.27313 -3.84349 19.2675
1.29642 -3.84034 19.2512
1.31865 -3.83949 19.2404
1.34233 -3.84042 19.2413
1.36636 -3.84144 19.2437
1.39128 -3.84033 19.2407
1.41645 -3.84129 19.2465
1.43846 -3.84077 19.2365
1.4605 -3.83933 19.2231
1.4839 -3.83733 19.2121
1.50798 -3.83106 19.1873
1.53026 -3.83129 19.1813
1.55285 -3.828 19.1632
1.57684 -3.82285 19.1427
1.59904 -3.82309 19.1367
1.62122 -3.82332 19.1306
1.6462 -3.82682 19.1453
1.67168 -3.82958 19.1587
1.69608 -3.83461 19.177
1.72257 -3.83646 19.1899
1.74834 -3.84004 19.2068
1.77365 -3.84458 19.2256
1.79562 -3.85013 19.2378
1.81911 -3.84993 19.2339
1.84404 -3.85082 19.2382
1.86897 -3.8517 19.2426
1.89243 -3.8515 19.2386
1.91908 -3.85543 19.2587
1.94407 -3.86096 19.2793
1.97096 -3.86602 19.3037
2.00003 -3.8768 19.3542
2.02806 -3.89068 19.412
2.0591 -3.90141 19.4673
2.08464 -3.90608 19.4854
2.11041 -3.90959 19.4999
2.13804 -3.91475 19.5255
2.23682 -4.00803 19.9815
2.26595 -4.01609 20.0191
2.29248 -4.02071 20.0373
2.31668 -4.02565 20.0498
2.34325 -4.02824 20.0612
2.37565 -4.03195 20.0929
2.40118 -4.03817 20.113
2.42345 -4.03987 20.1089
2.45705 -4.04946 20.1627
2.66741 -4.32313 21.4952
2.69085 -4.32459 21.4887
-0.467449 -3.96516 20.0782
-0.443362 -3.96434 20.0675
-0.412367 -3.95654 20.0494
-0.38698 -3.95396 20.0352
-0.362967 -3.95408 20.0298
-0.337543 -3.95433 20.0313
-0.313553 -3.95446 20.0259
-0.288133 -3.9547 20.0274
-0.264117 -3.95577 20.0272
-0.238156 -3.957 20.0363
-0.211785 -3.95686 20.0397
-0.186395 -3.95664 20.0385
-0.161388 -3.95536 20.0301
-0.138524 -3.9569 20.0274
-0.113554 -3.95562 20.019
-0.0893025 -3.95634 20.0179
-0.062402 -3.95672 20.0262
-0.0381517 -3.95744 20.0251
-0.0106187 -3.95787 20.0361
0.0110858 -3.96006 20.0318
0.0374819 -3.9596 20.0336
0.0644553 -3.95706 20.0273
0.0868757 -3.95802 20.0198
0.114709 -3.95014 19.9908
0.140089 -3.94487 19.9649
0.163294 -3.94182 19.9414
0.186576 -3.93957 19.9224
0.213108 -3.92786 19.8706
0.240983 -3.91739 19.8307
0.264939 -3.91322 19.8059
0.285392 -3.90865 19.7656
0.312288 -3.90004 19.7318
0.339249 -3.89021 19.6928
0.359288 -3.88694 19.6582
0.382893 -3.88285 19.6338
0.409187 -3.87415 19.5986
0.435388 -3.86548 19.5634
0.461381 -3.85895 19.5377
0.504555 -3.85387 19.4901
0.528335 -3.84832 19.4612
0.552669 -3.84387 19.4396
0.576521 -3.84255 19.4305
0.6013 -3.83657 19.4041
0.625364 -3.8351 19.3954
0.648259 -3.83531 19.3898
0.671139 -3.83551 19.3842
0.694005 -3.83572 19.3786
0.718552 -3.83429 19.372
0.744872 -3.83444 19.3788
0.769882 -3.83329 19.3752
0.793513 -3.83095 19.3615
0.816934 -3.83055 19.3555
0.842296 -3.82896 19.3513
0.866257 -3.83442 19.3723
0.889617 -3.82691 19.3359
0.9143 -3.8324 19.3594
0.939349 -3.83326 19.3644
0.965302 -3.83107 19.3599
0.989489 -3.83454 19.3728
1.01298 -3.84274 19.4027
1.03785 -3.8458 19.4159
1.06127 -3.8472 19.4173
1.08401 -3.84741 19.4113
1.10827 -3.84875 19.4152
1.13133 -3.84536 19.3959
1.15636 -3.839 19.3715
1.17846 -3.83522 19.3477
1.20266 -3.8282 19.3182
1.22588 -3.8248 19.3001
1.24725 -3.81584 19.254
1.26972 -3.81608 19.2481
1.29217 -3.8163 19.2422
1.31375 -3.80972 19.2068
1.34029 -3.81101 19.2187
1.3644 -3.81471 19.2318
1.38799 -3.81196 19.2183
1.41289 -3.81283 19.223
1.43518 -3.81054 19.2071
1.45722 -3.8102 19.198
1.48051 -3.8096 19.192
1.50511 -3.80419 19.172
1.52988 -3.80084 19.1605
1.54848 -3.79672 19.1266
1.5725 -3.79517 19.1197
1.59794 -3.7962 19.1269
1.62006 -3.79569 19.118
1.64561 -3.79923 19.1347
1.66907 -3.79986 19.1341
1.69231 -3.80146 19.1364
1.71926 -3.80735 19.1657
1.7445 -3.81186 19.1845
1.76932 -3.81453 19.1953
1.79563 -3.82195 19.2276
1.81793 -3.82327 19.2256
1.84092 -3.82481 19.2264
1.86703 -3.82372 19.2273
1.89189 -3.8241 19.2297
1.91745 -3.82731 19.2441
1.94362 -3.83179 19.2647
1.96787 -3.83768 19.2843
1.99692 -3.84838 19.3348
2.02797 -3.86482 19.4107
2.0568 -3.8709 19.4438
2.08323 -3.8789 19.4761
2.10814 -3.88001 19.48
2.13877 -3.88782 19.5236
2.16466 -3.89006 19.5341
2.26396 -3.99001 20.0143
2.29267 -3.99378 20.0362
2.31562 -3.99859 20.0447
2.34244 -4.00434 20.0674
2.37363 -4.00579 20.0882
2.40032 -4.0104 20.1065
2.42464 -4.01535 20.1189
2.45437 -4.02223 20.1529
2.48921 -4.03454 20.219
2.69886 -4.30427 21.5373
-0.442305 -3.94144 20.0912
-0.419154 -3.94055 20.0758
-0.385844 -3.93203 20.0642
-0.36183 -3.93122 20.0535
-0.33781 -3.93136 20.0481
-0.313803 -3.9315 20.0426
-0.287882 -3.93178 20.0465
-0.262778 -3.9348 20.0615
-0.239642 -3.93674 20.0619
-0.213337 -3.93519 20.0574
-0.188029 -3.93357 20.0483
-0.164075 -3.9337 20.0428
-0.139975 -3.93571 20.0477
-0.113854 -3.93379 20.0406
-0.0882979 -3.93443 20.0446
-0.0638326 -3.93507 20.0439
-0.0360793 -3.93467 20.0517
-0.0120936 -3.9389 20.0672
0.0378397 -3.9361 20.049
0.0630572 -3.93496 20.0424
0.0867725 -3.93417 20.0314
0.11414 -3.92721 20.0048
0.138598 -3.9219 19.9748
0.160526 -3.91735 19.9384
0.188152 -3.90729 19.8986
0.213589 -3.90184 19.8728
0.240507 -3.89299 19.8366
0.285378 -3.88238 19.7639
0.31202 -3.87361 19.7282
0.339122 -3.86304 19.686
0.357921 -3.86428 19.6677
0.382613 -3.85656 19.6302
0.408762 -3.85002 19.6043
0.43497 -3.84138 19.5692
0.461029 -3.83383 19.5388
0.484413 -3.82879 19.5101
0.503828 -3.82984 19.4945
0.52864 -3.82211 19.4594
0.552284 -3.81992 19.4453
0.575296 -3.81909 19.4352
0.600055 -3.81418 19.4133
0.62413 -3.81272 19.4046
0.646769 -3.81206 19.3941
0.669383 -3.81139 19.3836
0.692525 -3.81249 19.3829
0.717359 -3.81194 19.3813
0.746276 -3.80687 19.3747
0.770355 -3.80483 19.3638
0.793153 -3.80505 19.3581
0.816765 -3.80376 19.349
0.841029 -3.80002 19.3317
0.863762 -3.80025 19.3261
0.888589 -3.80064 19.3286
0.912762 -3.79978 19.3235
0.936918 -3.79891 19.3183
0.961659 -3.80041 19.3252
0.986452 -3.80501 19.3452
1.01119 -3.81134 19.3719
1.03547 -3.8137 19.3804
1.06157 -3.81873 19.4061
1.08371 -3.82142 19.4084
1.107 -3.81917 19.3943
1.13179 -3.81393 19.3734
1.15514 -3.81053 19.3552
1.1794 -3.80354 19.3257
1.20141 -3.79981 19.302
1.22112 -3.79076 19.2495
1.24512 -3.78455 19.2231
1.26757 -3.78371 19.213
1.28998 -3.78396 19.2072
1.31299 -3.7817 19.1935
1.33878 -3.78405 19.2071
1.36462 -3.78504 19.2155
1.387 -3.78528 19.2096
1.40936 -3.78553 19.2037
1.43321 -3.77998 19.1804
1.45622 -3.77607 19.1608
1.4785 -3.77632 19.1549
1.50137 -3.77597 19.1486
1.52474 -3.7704 19.1243
1.54694 -3.77065 19.1184
1.57006 -3.77078 19.1149
1.59277 -3.76881 19.1023
1.61617 -3.76999 19.1037
1.6413 -3.76867 19.1013
1.66585 -3.76988 19.1064
1.69096 -3.77501 19.1276
1.71597 -3.77849 19.1422
1.74216 -3.78 19.1533
1.76766 -3.78103 19.1604
1.78974 -3.78958 19.184
1.81526 -3.79168 19.1948
1.84086 -3.79497 19.21
1.86327 -3.79281 19.196
1.88854 -3.79464 19.2049
1.91412 -3.79906 19.2238
1.94023 -3.80301 19.2425
1.96638 -3.80696 19.2612
1.99558 -3.81492 19.3029
2.02489 -3.83456 19.3853
2.05677 -3.84128 19.4298
2.08249 -3.84867 19.4581
2.10491 -3.84701 19.4453
2.13143 -3.85191 19.4671
2.15972 -3.85958 19.5034
2.18505 -3.86194 19.5128
2.29215 -3.97094 20.0467
2.31617 -3.97279 20.0484
2.34461 -3.98075 20.0833
2.37316 -3.98291 20.0989
2.4005 -3.9834 20.1054
2.42445 -3.98894 20.1188
2.45515 -3.99644 20.1578
2.49068 -4.00933 20.2279
-0.470968 -3.9292 20.1563
-0.417126 -3.91863 20.1096
-0.393073 -3.91596 20.0883
-0.339411 -3.91105 20.0737
-0.315375 -3.91119 20.0682
-0.289339 -3.91334 20.0827
-0.264295 -3.91449 20.0871
-0.24302 -3.91722 20.0834
-0.21522 -3.91578 20.086
-0.18932 -3.91514 20.0845
-0.163423 -3.91449 20.083
-0.114649 -3.91299 20.0659
-0.0877014 -3.91335 20.0743
-0.0637576 -3.9135 20.0686
-0.0422248 -3.91902 20.0804
-0.0150203 -3.92126 20.0993
0.0114029 -3.91696 20.0813
0.0364851 -3.91443 20.0668
0.0615292 -3.9119 20.0523
0.0876792 -3.90671 20.0291
0.114758 -3.89994 20.0021
0.139346 -3.89359 19.9672
0.162783 -3.88827 19.9331
0.187706 -3.88127 19.8971
0.21334 -3.87524 19.8691
0.241214 -3.86488 19.8292
0.284918 -3.85805 19.7698
0.312509 -3.84778 19.7303
0.338864 -3.83819 19.6896
0.356555 -3.84161 19.6771
0.382335 -3.83028 19.6266
0.409466 -3.82118 19.5924
0.43462 -3.81623 19.5702
0.460456 -3.80783 19.5349
0.483112 -3.80628 19.5194
0.503858 -3.80376 19.4923
0.527363 -3.79965 19.4686
0.551056 -3.79644 19.45
0.575861 -3.79155 19.4281
0.599711 -3.78923 19.4144
0.622636 -3.78945 19.4089
0.645547 -3.78967 19.4033
0.695033 -3.78084 19.3647
0.719278 -3.78028 19.3609
0.746015 -3.7812 19.3727
0.770864 -3.77947 19.3659
0.793957 -3.77664 19.348
0.816775 -3.77508 19.3348
0.840757 -3.77307 19.324
0.864301 -3.77181 19.3149
0.887819 -3.77055 19.3058
0.909692 -3.77228 19.3036
0.935233 -3.77228 19.3071
0.960863 -3.77353 19.3161
0.984587 -3.77586 19.3229
1.01049 -3.77777 19.3355
1.03521 -3.77884 19.3404
1.05838 -3.77939 19.3377
1.08083 -3.79085 19.3775
1.1076 -3.78997 19.3812
1.13214 -3.78179 19.3473
1.15514 -3.77954 19.3326
1.17513 -3.76807 19.2704
1.19793 -3.7658 19.2554
1.22173 -3.75998 19.2295
1.24303 -3.7512 19.1838
1.26542 -3.75145 19.178
1.28953 -3.75529 19.1922
1.31167 -3.75008 19.1639
1.3356 -3.7511 19.1664
1.36035 -3.75471 19.1816
1.38517 -3.752 19.1723
1.40894 -3.75139 19.1678
1.4293 -3.73943 19.1084
1.45229 -3.74581 19.1286
1.4755 -3.74525 19.1227
1.49968 -3.74339 19.115
1.5242 -3.74381 19.1172
1.54639 -3.74408 19.1112
1.57014 -3.73803 19.0865
1.59229 -3.7372 19.0765
1.61489 -3.73611 19.0671
1.63894 -3.73844 19.0749
1.66297 -3.73681 19.068
1.68858 -3.73835 19.0777
1.71248 -3.73609 19.0682
1.73424 -3.7277 19.0295
1.76166 -3.74243 19.093
1.78509 -3.73865 19.0765
1.81168 -3.75784 19.1528
1.83551 -3.75429 19.1382
1.86091 -3.76103 19.1655
1.88517 -3.761 19.1648
1.91035 -3.76239 19.172
1.93695 -3.7708 19.2083
1.96186 -3.77368 19.2197
1.99016 -3.78369 19.2662
2.01766 -3.79246 19.3057
2.04779 -3.80334 19.36
2.07549 -3.81341 19.4039
2.10001 -3.81579 19.4114
2.12565 -3.81959 19.4271
2.15521 -3.82374 19.4554
2.18383 -3.83448 19.5032
2.31787 -3.94963 20.0644
2.3443 -3.95577 20.0874
2.37268 -3.96001 20.1095
2.40351 -3.96187 20.1306
2.4291 -3.96902 20.1541
2.45763 -3.97329 20.1762
2.48901 -3.9832 20.2249
-0.394738 -3.89559 20.1139
-0.369212 -3.89583 20.1155
-0.344669 -3.89508 20.1071
-0.32059 -3.89523 20.1016
-0.294972 -3.89585 20.1057
-0.268617 -3.89579 20.1093
-0.244564 -3.89594 20.1038
-0.217594 -3.89629 20.1123
-0.190614 -3.89664 20.1208
-0.166578 -3.89679 20.1151
-0.142557 -3.89694 20.1095
-0.11855 -3.89709 20.1038
-0.093102 -3.89688 20.1026
-0.0685691 -3.89753 20.1018
-0.0418103 -3.90018 20.1211
-0.0165834 -3.89812 20.1092
0.00737512 -3.89827 20.1034
0.0601326 -3.88974 20.0674
0.0861659 -3.88364 20.0389
0.112267 -3.87848 20.0157
0.158161 -3.86873 19.9469
0.186248 -3.85834 19.9067
0.211895 -3.85235 19.8787
0.239783 -3.84202 19.8388
0.282385 -3.83591 19.7779
0.310178 -3.82657 19.7435
0.35519 -3.81891 19.6866
0.382112 -3.80698 19.6374
0.407142 -3.80115 19.6101
0.432101 -3.79533 19.5829
0.459368 -3.78616 19.5492
0.481811 -3.78374 19.5287
0.500531 -3.78376 19.5053
0.526086 -3.77717 19.4779
0.548626 -3.77565 19.4624
0.573697 -3.77166 19.4455
0.598724 -3.76767 19.4285
0.621404 -3.76703 19.4181
0.644325 -3.76726 19.4125
0.694387 -3.76021 19.3837
0.716675 -3.75871 19.3683
0.742619 -3.75823 19.371
0.768561 -3.75775 19.3738
0.789874 -3.75367 19.3438
0.81426 -3.74888 19.3221
0.83925 -3.74972 19.3273
0.86286 -3.74865 19.3192
0.886668 -3.74724 19.3104
0.909356 -3.74749 19.3047
0.932946 -3.74862 19.3061
0.959472 -3.74987 19.3184
0.983661 -3.75102 19.322
1.00632 -3.75127 19.3162
1.03254 -3.75167 19.3236
1.05876 -3.75206 19.331
1.07999 -3.75732 19.3411
1.10291 -3.76097 19.3503
1.127 -3.75367 19.3184
1.14921 -3.75306 19.3078
1.17443 -3.74333 19.2704
1.19832 -3.73484 19.2338
1.21589 -3.73616 19.2156
1.23889 -3.72843 19.1796
1.26204 -3.72423 19.1585
1.28514 -3.72303 19.1494
1.30674 -3.72476 19.1469
1.33278 -3.72434 19.1508
1.35827 -3.72008 19.1377
1.38231 -3.72091 19.1399
1.40457 -3.72012 19.1298
1.42798 -3.71654 19.1128
1.45021 -3.71681 19.1069
1.47243 -3.71708 19.1011
1.49756 -3.7145 19.0937
1.52168 -3.71287 19.0869
1.54384 -3.71315 19.081
1.56316 -3.70839 19.047
1.58526 -3.70867 19.0411
1.60838 -3.70513 19.0242
1.63279 -3.70556 19.0263
1.65629 -3.70478 19.021
1.67686 -3.69549 18.9751
1.69913 -3.69064 18.9512
1.72106 -3.69093 18.9453
1.74341 -3.6888 18.9319
1.76916 -3.69131 18.946
1.8061 -3.72266 19.0994
1.82761 -3.7221 19.0887
1.85608 -3.73248 19.1387
1.87944 -3.73231 19.1349
1.90506 -3.73358 19.1431
1.92948 -3.73747 19.157
1.95446 -3.74139 19.1726
1.98319 -3.75128 19.2204
2.01014 -3.75478 19.24
2.0433 -3.77128 19.3236
2.07552 -3.78615 19.3981
2.09776 -3.78641 19.3915
2.1236 -3.79185 19.4136
2.15287 -3.79709 19.445
2.1787 -3.80542 19.4766
2.20612 -3.81312 19.5104
2.31516 -3.92706 20.0695
2.34416 -3.93569 20.1085
2.3722 -3.93709 20.1201
2.40163 -3.94034 20.1419
2.42948 -3.94717 20.1709
2.45586 -3.94969 20.1811
2.48955 -3.96062 20.24
2.51642 -3.97165 20.2793
-0.36663 -3.87384 20.1518
-0.342528 -3.87307 20.141
-0.318453 -3.8723 20.1301
-0.293188 -3.8729 20.1324
-0.268783 -3.87363 20.1315
-0.244707 -3.87378 20.1259
-0.218734 -3.87446 20.1317
-0.192182 -3.87438 20.1359
-0.166988 -3.87406 20.1327
-0.144012 -3.87562 20.1299
-0.118923 -3.87438 20.1214
-0.0919609 -3.8762 20.1374
-0.0673914 -3.87685 20.1367
-0.0419202 -3.87665 20.1354
-0.0165082 -3.87598 20.1314
0.00605752 -3.87697 20.1238
0.0319951 -3.8736 20.1082
0.0586069 -3.86663 20.0772
0.0835086 -3.86322 20.0574
0.109776 -3.857 20.0293
0.136375 -3.84758 19.9867
0.158105 -3.84493 19.9584
0.184791 -3.8354 19.9164
0.210451 -3.82943 19.8884
0.237282 -3.82176 19.857
0.282111 -3.81245 19.7888
0.308788 -3.80379 19.753
0.336112 -3.79275 19.7086
0.353826 -3.79619 19.696
0.379636 -3.78496 19.6454
0.405805 -3.77851 19.6195
0.431905 -3.77207 19.5936
0.45715 -3.7651 19.5621
0.480512 -3.76119 19.538
0.501687 -3.75764 19.5072
0.524811 -3.75467 19.4871
0.548527 -3.75149 19.4684
0.573356 -3.74666 19.4465
0.597482 -3.74523 19.4377
0.621621 -3.7421 19.4213
0.644543 -3.74233 19.4158
0.66776 -3.74003 19.3999
0.69421 -3.73683 19.3923
0.716902 -3.73554 19.3792
0.743035 -3.7328 19.3725
0.767469 -3.73164 19.3667
0.790109 -3.72883 19.3471
0.813116 -3.72655 19.3312
0.83884 -3.72294 19.3196
0.860097 -3.72559 19.3191
0.88487 -3.72036 19.2973
0.909102 -3.72161 19.3015
0.932339 -3.72333 19.3042
0.957877 -3.72333 19.3077
0.981064 -3.72782 19.3219
1.00605 -3.72748 19.3219
1.02958 -3.7276 19.3187
1.05277 -3.72805 19.3157
1.07729 -3.73017 19.3243
1.10165 -3.73418 19.3402
1.12629 -3.72803 19.3149
1.14958 -3.72472 19.2968
1.17113 -3.71599 19.2507
1.19204 -3.7097 19.2127
1.21502 -3.7065 19.1947
1.23796 -3.7033 19.1767
1.26064 -3.69514 19.138
1.28428 -3.69662 19.1415
1.30641 -3.69647 19.1334
1.32989 -3.68962 19.1032
1.354 -3.68848 19.098
1.37625 -3.68876 19.0922
1.39962 -3.68416 19.071
1.42182 -3.68444 19.0653
1.44184 -3.6787 19.029
1.46591 -3.67765 19.0243
1.48882 -3.67429 19.0071
1.51136 -3.67756 19.0142
1.53245 -3.67224 18.9838
1.55495 -3.66744 18.96
1.57932 -3.66456 18.9499
1.60049 -3.66345 18.9361
1.62376 -3.6608 18.9234
1.64678 -3.6655 18.9375
1.6696 -3.65815 18.906
1.69338 -3.65511 18.8937
1.71525 -3.65541 18.8879
1.73702 -3.65468 18.878
1.76196 -3.65749 18.891
1.78661 -3.65857 18.8967
1.81048 -3.66483 18.9188
1.8363 -3.67705 18.9682
1.86551 -3.68017 18.9949
1.90125 -3.69555 19.0854
1.92592 -3.70759 19.1295
1.95014 -3.7065 19.1251
1.9769 -3.71325 19.1562
2.00263 -3.72252 19.1928
2.02896 -3.72543 19.2086
2.0551 -3.73326 19.241
2.08637 -3.7438 19.2979
2.12 -3.75945 19.3791
2.14719 -3.76791 19.4157
2.17475 -3.7729 19.4412
2.20446 -3.78352 19.4921
2.23174 -3.79549 19.5401
2.34232 -3.91092 20.109
2.37266 -3.91458 20.1349
2.4029 -3.91854 20.1615
2.43027 -3.92583 20.1907
2.45794 -3.92721 20.2008
2.48913 -3.93757 20.2508
2.51601 -3.94857 20.2902
-0.397966 -3.86118 20.2029
-0.373849 -3.85764 20.176
-0.346911 -3.8552 20.1686
-0.320068 -3.85092 20.1506
-0.293656 -3.85085 20.1542
-0.26798 -3.85148 20.1584
-0.243363 -3.85213 20.1578
-0.217834 -3.85192 20.1566
-0.19375 -3.85209 20.151
-0.167337 -3.85203 20.1546
-0.145469 -3.85426 20.1503
-0.118423 -3.85461 20.1588
-0.0941006 -3.85754 20.1691
-0.0700466 -3.8577 20.1633
-0.0419402 -3.85647 20.1679
-0.0150163 -3.85298 20.1554
0.00745406 -3.85306 20.1425
0.032624 -3.84838 20.1167
0.0573392 -3.84533 20.0975
0.0831426 -3.83746 20.0585
0.110261 -3.83078 20.0314
0.137133 -3.81927 19.9791
0.160571 -3.81766 19.9629
0.183336 -3.81243 19.926
0.210093 -3.80388 19.8894
0.236925 -3.79625 19.858
0.281857 -3.78597 19.7851
0.308436 -3.77841 19.754
0.334738 -3.76999 19.718
0.354488 -3.76831 19.6886
0.379211 -3.76075 19.6511
0.40553 -3.75225 19.6158
0.431626 -3.74585 19.5899
0.457653 -3.73947 19.5642
0.479214 -3.73861 19.5472
0.501885 -3.73111 19.5035
0.524589 -3.73005 19.4906
0.548187 -3.72647 19.4694
0.572138 -3.72316 19.4511
0.598193 -3.72045 19.4437
0.62184 -3.71715 19.4246
0.645673 -3.71319 19.4033
0.667435 -3.71407 19.3963
0.69235 -3.71236 19.3896
0.716225 -3.71164 19.3835
0.740602 -3.70731 19.3631
0.764713 -3.70363 19.3449
0.787041 -3.70262 19.332
0.810218 -3.70247 19.3262
0.836405 -3.69596 19.3035
0.858887 -3.69471 19.2905
0.883937 -3.69541 19.2955
0.909133 -3.69456 19.2942
0.930449 -3.69729 19.2943
0.958295 -3.69605 19.3009
0.982262 -3.69787 19.3066
1.00632 -3.69818 19.3062
1.02836 -3.70086 19.3085
1.05098 -3.70113 19.3028
1.07417 -3.70186 19.301
1.09881 -3.70232 19.3032
1.12231 -3.69661 19.2758
1.14489 -3.69339 19.2558
1.16915 -3.68377 19.2153
1.1925 -3.67994 19.1958
1.21464 -3.67789 19.1796
1.2342 -3.66845 19.1246
1.25709 -3.66534 19.1071
1.27977 -3.66352 19.0942
1.30295 -3.65831 19.0695
1.32642 -3.65741 19.0631
1.35024 -3.65842 19.0656
1.37254 -3.64809 19.0182
1.39467 -3.64734 19.0083
1.4168 -3.64764 19.0026
1.43898 -3.64412 18.9822
1.46 -3.63954 18.954
1.48253 -3.63397 18.9271
1.50558 -3.62947 18.9063
1.52696 -3.62873 18.8947
1.54945 -3.62587 18.8786
1.57295 -3.62184 18.8615
1.59485 -3.62215 18.8558
1.61864 -3.62039 18.8484
1.64257 -3.62219 18.8549
1.66417 -3.62188 18.8461
1.6866 -3.62248 18.8433
1.71135 -3.62383 18.8506
1.73705 -3.62328 18.8538
1.75924 -3.62334 18.8483
1.78164 -3.62393 18.8454
1.80616 -3.62751 18.86
1.83139 -3.63328 18.8847
1.85538 -3.6366 18.8964
1.8825 -3.64379 18.9317
1.90993 -3.65487 18.9815
1.94177 -3.67 19.059
1.97115 -3.6754 19.0937
1.99583 -3.68553 19.1306
2.01912 -3.68538 19.1267
2.04706 -3.69206 19.1609
2.0707 -3.6976 19.1779
2.09897 -3.70353 19.21
2.13361 -3.72279 19.3072
2.1579 -3.71528 19.2802
2.19395 -3.74329 19.4108
2.22775 -3.7594 19.4928
2.3455 -3.88906 20.134
2.37218 -3.89161 20.1456
2.40336 -3.89281 20.1656
2.4304 -3.90128 20.1979
2.45731 -3.9033 20.208
2.4885 -3.91362 20.2581
2.51619 -3.92137 20.2891
-0.402441 -3.84232 20.2253
-0.376307 -3.83668 20.1954
-0.34942 -3.83647 20.2004
-0.321478 -3.83501 20.2031
-0.295538 -3.83162 20.1856
-0.270379 -3.83276 20.1901
-0.246238 -3.83293 20.1845
-0.221074 -3.83407 20.189
-0.193151 -3.83263 20.1916
-0.170728 -3.83636 20.1979
-0.146613 -3.83653 20.1921
-0.122344 -3.83854 20.1971
-0.0982465 -3.83871 20.1913
-0.072702 -3.83851 20.19
-0.0437184 -3.83447 20.1834
-0.0151621 -3.82892 20.1671
0.0059042 -3.82984 20.1524
0.033028 -3.82295 20.1231
0.0558152 -3.82217 20.1073
0.0827799 -3.8117 20.0595
0.108908 -3.80662 20.0363
0.135949 -3.79803 19.9992
0.158798 -3.79284 19.9622
0.181882 -3.78945 19.9357
0.209737 -3.77833 19.8904
0.236683 -3.76969 19.8542
0.260668 -3.7657 19.8294
0.282736 -3.75884 19.7827
0.308086 -3.75302 19.755
0.333366 -3.74722 19.7274
0.355155 -3.74044 19.6812
0.378788 -3.73653 19.6568
0.405115 -3.72807 19.6214
0.431284 -3.72067 19.5909
0.456405 -3.71583 19.5688
0.479829 -3.71095 19.54
0.500601 -3.70856 19.5127
0.523509 -3.70624 19.4945
0.547888 -3.70041 19.4657
0.572646 -3.69767 19.4531
0.597137 -3.69478 19.4388
0.622061 -3.6922 19.4278
0.644457 -3.69074 19.4124
0.667946 -3.68866 19.3984
0.690822 -3.68892 19.3928
0.715044 -3.68519 19.3743
0.739334 -3.68179 19.3578
0.764047 -3.67977 19.3492
0.786769 -3.67602 19.3254
0.810932 -3.67265 19.309
0.835065 -3.67212 19.3052
0.856349 -3.67319 19.2978
0.882193 -3.67271 19.3006
0.909396 -3.66862 19.2924
0.930326 -3.67156 19.2921
0.954899 -3.67317 19.2992
0.97987 -3.67401 19.3043
1.00485 -3.67485 19.3095
1.02951 -3.67033 19.2906
1.05238 -3.67035 19.2847
1.07532 -3.67028 19.2788
1.09793 -3.66949 19.2688
1.1225 -3.66345 19.2437
1.14568 -3.66127 19.2301
1.16719 -3.65164 19.1799
1.18762 -3.65024 19.1604
1.21093 -3.64341 19.1286
1.2333 -3.64161 19.1144
1.25641 -3.63123 19.0681
1.27916 -3.63472 19.077
1.29989 -3.62591 19.0294
1.32357 -3.62435 19.0214
1.34724 -3.6228 19.0133
1.36965 -3.61773 18.9871
1.39183 -3.61665 18.9762
1.41253 -3.60961 18.9369
1.43497 -3.60656 18.9193
1.45699 -3.60688 18.9137
1.48059 -3.60002 18.8854
1.50307 -3.59795 18.8722
1.52501 -3.59827 18.8666
1.54726 -3.59524 18.8492
1.5705 -3.59273 18.8371
1.59237 -3.59305 18.8314
1.61515 -3.59323 18.8282
1.63753 -3.5892 18.8078
1.66199 -3.59077 18.8153
1.68707 -3.5909 18.8193
1.70946 -3.5915 18.8165
1.73124 -3.59183 18.8107
1.75501 -3.5941 18.8185
1.77822 -3.59357 18.8141
1.8018 -3.59352 18.8127
1.82707 -3.60225 18.8486
1.85212 -3.60133 18.8484
1.87856 -3.60817 18.8807
1.90359 -3.61335 18.9023
1.93197 -3.62341 18.9516
1.96569 -3.64163 19.046
1.98991 -3.64497 19.0577
2.01635 -3.65211 19.0896
2.04049 -3.65443 19.0971
2.06592 -3.65968 19.1189
2.09365 -3.66696 19.1545
2.12076 -3.66645 19.1607
2.14438 -3.67244 19.1791
2.17008 -3.6741 19.1885
2.19277 -3.67632 19.1909
2.42996 -3.87199 20.1876
2.45592 -3.87983 20.2145
2.48762 -3.88652 20.2541
2.51529 -3.89343 20.2825
-0.373943 -3.81437 20.2302
-0.34731 -3.81336 20.2292
-0.3245 -3.81437 20.2219
-0.297536 -3.81196 20.2145
-0.273358 -3.81213 20.2089
-0.249194 -3.81231 20.2032
-0.22211 -3.81264 20.2119
-0.190983 -3.80772 20.2098
-0.172138 -3.81581 20.2238
-0.147917 -3.8169 20.2234
-0.122719 -3.81568 20.2148
-0.0982482 -3.81642 20.2137
-0.0686058 -3.81213 20.2084
-0.041691 -3.80797 20.1919
-0.0166128 -3.80658 20.1823
0.00924769 -3.80199 20.1591
0.0345936 -3.7963 20.1283
0.0591895 -3.79025 20.0926
0.081273 -3.78856 20.0692
0.108812 -3.77975 20.0326
0.136323 -3.77113 19.9971
0.163494 -3.76033 19.9494
0.182939 -3.76302 19.9385
0.209266 -3.75382 19.8962
0.237181 -3.74369 19.8563
0.261378 -3.73764 19.8219
0.282479 -3.73386 19.7862
0.307834 -3.7266 19.7513
0.334973 -3.71632 19.709
0.358447 -3.7101 19.6722
0.379046 -3.70973 19.6527
0.405571 -3.7014 19.6186
0.430944 -3.69548 19.5919
0.456247 -3.68959 19.5652
0.480448 -3.68331 19.5326
0.501209 -3.68096 19.5055
0.52314 -3.68067 19.4929
0.5492 -3.67247 19.4594
0.5725 -3.67057 19.445
0.596247 -3.6684 19.4312
0.621696 -3.66326 19.4103
0.644601 -3.66353 19.4047
0.667758 -3.66165 19.3904
0.690624 -3.66192 19.3848
0.715054 -3.65828 19.3675
0.740786 -3.6539 19.3519
0.764405 -3.65285 19.3435
0.78705 -3.65002 19.3236
0.810319 -3.64799 19.3097
0.834315 -3.64432 19.2913
0.854917 -3.65002 19.302
0.883701 -3.641 19.278
0.907824 -3.64331 19.2867
0.93097 -3.64485 19.2883
0.954743 -3.64578 19.2896
0.979279 -3.64772 19.298
1.00392 -3.64607 19.2913
1.02852 -3.64052 19.2678
1.0499 -3.63528 19.2343
1.07084 -3.63801 19.2333
1.09485 -3.63856 19.234
1.11869 -3.62986 19.1952
1.14172 -3.62557 19.1724
1.16502 -3.62208 19.1541
1.1885 -3.61588 19.1253
1.21009 -3.61291 19.1035
1.2301 -3.60206 19.044
1.25289 -3.60161 19.0372
1.27621 -3.59602 19.0114
1.29867 -3.59366 18.9958
1.32256 -3.58784 18.9714
1.34468 -3.58816 18.9658
1.36704 -3.58548 18.949
1.39002 -3.58401 18.9393
1.41144 -3.57905 18.9107
1.43215 -3.57425 18.8805
1.45456 -3.57538 18.8795
1.47771 -3.56813 18.8482
1.50058 -3.56653 18.8382
1.52296 -3.56585 18.8303
1.54532 -3.56626 18.8265
1.56888 -3.56655 18.8263
1.59032 -3.56315 18.805
1.61403 -3.56114 18.7965
1.63698 -3.56149 18.7947
1.65996 -3.56067 18.7885
1.68391 -3.5608 18.789
1.70758 -3.55928 18.7824
1.73166 -3.56034 18.7868
1.754 -3.56095 18.784
1.77527 -3.5626 18.7817
1.80012 -3.56575 18.7962
1.82585 -3.57022 18.8182
1.84776 -3.57214 18.8187
1.87428 -3.57122 18.8232
1.89789 -3.58022 18.8547
1.92424 -3.5815 18.8664
1.95258 -3.59457 18.9266
1.98236 -3.61217 19.0069
2.01262 -3.6199 19.0529
2.03782 -3.62374 19.0693
2.06087 -3.62113 19.0562
2.08713 -3.63034 19.0945
2.1144 -3.62684 19.091
2.1367 -3.63194 19.1027
2.16137 -3.6335 19.1091
2.18386 -3.63465 19.1075
2.20816 -3.63569 19.1108
2.23211 -3.64371 19.1371
2.2689 -3.66113 19.2333
2.52028 -3.86991 20.3077
-0.348903 -3.79365 20.2606
-0.323315 -3.79117 20.246
-0.29865 -3.79046 20.2374
-0.270668 -3.78901 20.2401
-0.246368 -3.79102 20.2453
-0.222176 -3.7912 20.2396
-0.196554 -3.791 20.2384
-0.170245 -3.79211 20.2476
-0.146632 -3.79281 20.2422
-0.122477 -3.793 20.2364
-0.0968361 -3.79326 20.2378
-0.0714865 -3.79079 20.2232
-0.0419214 -3.78583 20.2139
-0.0182823 -3.7824 20.1868
0.00891948 -3.77556 20.1574
0.0344776 -3.77225 20.1399
0.0628267 -3.76015 20.0884
0.0810488 -3.76368 20.0755
0.109468 -3.75343 20.0348
0.135985 -3.74491 19.9954
0.158241 -3.74243 19.9694
0.183685 -3.73481 19.9308
0.209035 -3.72721 19.8923
0.235872 -3.71971 19.861
0.262094 -3.7096 19.8143
0.279764 -3.71225 19.7965
0.307395 -3.70224 19.757
0.334728 -3.69142 19.7125
0.352442 -3.69493 19.6999
0.379389 -3.68329 19.6506
0.404435 -3.67762 19.6233
0.429412 -3.67196 19.5961
0.456698 -3.663 19.5624
0.479156 -3.6607 19.5418
0.503462 -3.6534 19.5048
0.523462 -3.65444 19.4909
0.548104 -3.64886 19.464
0.572926 -3.64414 19.4422
0.596761 -3.64293 19.4331
0.62151 -3.63723 19.4067
0.645291 -3.63502 19.3931
0.668167 -3.6353 19.3876
0.691889 -3.6331 19.374
0.715575 -3.63091 19.3604
0.740585 -3.62775 19.3476
0.764551 -3.62657 19.3399
0.785605 -3.62682 19.3277
0.809973 -3.62218 19.3061
0.839197 -3.61846 19.307
0.883099 -3.6182 19.2867
0.9075 -3.61852 19.2877
0.930698 -3.61932 19.2863
0.954541 -3.61915 19.2831
0.976824 -3.61861 19.2726
1.00124 -3.61484 19.256
1.02447 -3.6117 19.2379
1.04858 -3.60908 19.2254
1.07173 -3.60597 19.2075
1.09483 -3.60285 19.1895
1.11806 -3.60171 19.1805
1.14243 -3.59375 19.1469
1.16443 -3.59016 19.1236
1.1837 -3.58396 19.08
1.20636 -3.58202 19.0663
1.22969 -3.57559 19.0365
1.25392 -3.56967 19.0122
1.27613 -3.56278 18.9772
1.29583 -3.56548 18.9729
1.31916 -3.56103 18.952
1.34244 -3.55659 18.9312
1.36451 -3.55692 18.9257
1.38442 -3.55325 18.8968
1.40712 -3.54803 18.8715
1.4291 -3.54837 18.866
1.45176 -3.54729 18.8571
1.47559 -3.54038 18.8293
1.49703 -3.53992 18.8192
1.51937 -3.54106 18.8182
1.54201 -3.54015 18.8103
1.56482 -3.53956 18.8042
1.58685 -3.53896 18.7956
1.6125 -3.53395 18.782
1.63644 -3.53382 18.7816
1.65816 -3.53346 18.7731
1.68116 -3.53335 18.7697
1.70416 -3.53324 18.7664
1.72852 -3.53409 18.771
1.75289 -3.53494 18.7756
1.77586 -3.53484 18.7722
1.79849 -3.53661 18.7747
1.82171 -3.53927 18.7823
1.84476 -3.54165 18.7882
1.87214 -3.54543 18.8128
1.89736 -3.54664 18.821
1.92185 -3.55258 18.8441
1.94964 -3.55785 18.8748
1.97554 -3.56986 18.9236
2.0065 -3.58464 18.9975
2.03366 -3.59105 19.0294
2.05814 -3.59502 19.0442
2.08371 -3.59711 19.0555
2.10819 -3.59654 19.054
2.13147 -3.59882 19.0589
2.15565 -3.59896 19.059
2.18018 -3.5996 19.0619
2.20264 -3.6027 19.0672
2.2269 -3.60488 19.0745
2.25071 -3.60509 19.0737
2.27974 -3.60935 19.1022
2.30537 -3.61457 19.1237
2.33252 -3.62271 19.1595
-0.374754 -3.77552 20.3085
-0.356085 -3.77818 20.2902
-0.323495 -3.76967 20.2738
-0.296393 -3.76907 20.2772
-0.272197 -3.76836 20.2661
-0.247974 -3.76855 20.2605
-0.222624 -3.76825 20.2573
-0.195139 -3.76913 20.2707
-0.1706 -3.76988 20.2696
-0.145343 -3.76868 20.261
-0.122236 -3.77027 20.2581
-0.0969273 -3.76998 20.2549
-0.0717434 -3.7686 20.2452
-0.0450125 -3.76245 20.2166
-0.018368 -3.75873 20.2011
0.00805407 -3.75126 20.1646
0.0354166 -3.74466 20.1373
0.0613107 -3.73696 20.0981
0.0807602 -3.73834 20.0791
0.106846 -3.73096 20.0431
0.135168 -3.72079 20.0025
0.161985 -3.71341 19.9705
0.187108 -3.7041 19.9214
0.207601 -3.70423 19.9019
0.235525 -3.69419 19.8619
0.260688 -3.68669 19.8237
0.28065 -3.68512 19.794
0.307875 -3.6754 19.754
0.334493 -3.66796 19.7232
0.358363 -3.66209 19.6893
0.381108 -3.65723 19.656
0.403629 -3.65441 19.6323
0.430083 -3.64619 19.5982
0.456303 -3.63885 19.5679
0.47978 -3.63308 19.5345
0.498735 -3.63411 19.516
0.524066 -3.62689 19.4836
0.54701 -3.62525 19.4687
0.573356 -3.61773 19.4394
0.59661 -3.61588 19.425
0.621181 -3.61228 19.4077
0.645846 -3.60762 19.3859
0.66871 -3.60791 19.3805
0.691689 -3.60714 19.3706
0.7161 -3.60356 19.3533
0.739742 -3.60139 19.3397
0.763236 -3.60028 19.3306
0.786461 -3.59917 19.3205
0.810401 -3.59683 19.3075
0.833626 -3.59909 19.3128
0.859521 -3.5931 19.291
0.883185 -3.59163 19.2813
0.907617 -3.59234 19.2842
0.930943 -3.59297 19.2825
0.954969 -3.59193 19.2762
0.979068 -3.58736 19.2547
1.00251 -3.58414 19.2369
1.02594 -3.58067 19.2181
1.04783 -3.58259 19.2172
1.06994 -3.57397 19.1719
1.09295 -3.57325 19.1639
1.11551 -3.57218 19.1529
1.13724 -3.56522 19.1141
1.16045 -3.55992 19.0878
1.18366 -3.55623 19.0686
1.20596 -3.55553 19.0588
1.22712 -3.54727 19.0137
1.24845 -3.544 18.9902
1.27132 -3.53597 18.9527
1.29368 -3.53393 18.9382
1.31578 -3.53427 18.9327
1.33904 -3.52986 18.9119
1.36166 -3.52783 18.8988
1.38488 -3.52239 18.874
1.40738 -3.52142 18.865
1.42935 -3.52177 18.8595
1.45184 -3.51976 18.8464
1.47484 -3.5154 18.8258
1.49731 -3.5144 18.8169
1.51913 -3.51375 18.8072
1.54156 -3.51436 18.8046
1.56428 -3.51211 18.7918
1.58667 -3.50644 18.7648
1.61077 -3.50687 18.7671
1.63215 -3.50569 18.7544
1.65741 -3.50615 18.7605
1.68133 -3.50691 18.7635
1.70306 -3.50727 18.7579
1.72478 -3.50763 18.7522
1.74943 -3.50895 18.7596
1.77208 -3.50838 18.7535
1.79566 -3.50689 18.7469
1.81936 -3.50914 18.7546
1.84376 -3.51356 18.7725
1.86896 -3.51589 18.7851
1.89284 -3.52152 18.8055
1.91803 -3.52059 18.8059
1.94518 -3.52966 18.8487
1.96967 -3.53991 18.8872
2.00001 -3.54854 18.9375
2.02987 -3.56102 18.9998
2.05527 -3.56175 19.006
2.08041 -3.57 19.0381
2.10626 -3.56996 19.0428
2.12875 -3.57059 19.0395
2.15124 -3.57121 19.0363
2.17342 -3.5713 19.0303
2.19983 -3.57065 19.0345
2.22438 -3.57212 19.0404
2.24973 -3.57593 19.0567
2.27582 -3.58116 19.08
2.29963 -3.58477 19.0908
2.32535 -3.58448 19.0939
2.35337 -3.59311 19.134
-0.387546 -3.76611 20.3473
-0.297995 -3.74746 20.2978
-0.273819 -3.74586 20.2814
-0.249579 -3.74606 20.2757
-0.222411 -3.74637 20.2844
-0.195234 -3.74669 20.2931
-0.171012 -3.74689 20.2874
-0.146804 -3.74709 20.2817
-0.121543 -3.7459 20.2731
-0.097014 -3.74666 20.2719
-0.0703989 -3.74159 20.2483
-0.0451832 -3.73809 20.2272
-0.0195787 -3.73409 20.2053
0.00753072 -3.72642 20.1705
0.0352239 -3.71774 20.1333
0.0619649 -3.71171 20.1065
0.0829056 -3.70868 20.0704
0.107344 -3.70472 20.0451
0.135669 -3.6946 20.0045
0.16275 -3.68518 19.9627
0.185664 -3.68107 19.931
0.208507 -3.67696 19.8994
0.235295 -3.66763 19.858
0.261409 -3.65867 19.8161
0.28136 -3.65713 19.7864
0.307753 -3.64892 19.7503
0.334245 -3.64159 19.7194
0.359042 -3.63425 19.6817
0.380128 -3.63194 19.6541
0.403974 -3.628 19.6302
0.430006 -3.61891 19.5899
0.456033 -3.61269 19.5641
0.480408 -3.60547 19.5271
0.500871 -3.60571 19.5108
0.524673 -3.59935 19.4763
0.548331 -3.59732 19.4622
0.573218 -3.59068 19.4312
0.597912 -3.58801 19.4186
0.621893 -3.5838 19.396
0.646139 -3.5794 19.3738
0.669301 -3.57724 19.358
0.692136 -3.5759 19.345
0.716635 -3.57294 19.331
0.741946 -3.57016 19.321
0.764697 -3.57046 19.3156
0.788133 -3.5684 19.3019
0.811049 -3.56661 19.2877
0.83427 -3.56736 19.2862
0.858462 -3.56488 19.2738
0.883386 -3.56435 19.2731
0.906652 -3.56407 19.2672
0.930877 -3.56284 19.2607
0.956025 -3.55986 19.25
0.979211 -3.55532 19.2253
0.999168 -3.54955 19.1837
1.0209 -3.54946 19.1736
1.0451 -3.54512 19.1541
1.06812 -3.54311 19.1406
1.09058 -3.5424 19.1308
1.11434 -3.53792 19.1096
1.13805 -3.53346 19.0885
1.16171 -3.529 19.0674
1.18337 -3.52503 19.0415
1.202 -3.52088 19.0043
1.22507 -3.51669 18.983
1.24777 -3.51269 18.9612
1.27138 -3.51019 18.9491
1.29447 -3.50391 18.9197
1.31727 -3.50284 18.9109
1.3405 -3.49847 18.8902
1.36297 -3.49553 18.8728
1.38567 -3.49447 18.864
1.40721 -3.49404 18.8539
1.42861 -3.49149 18.8348
1.45212 -3.48771 18.8182
1.47492 -3.48792 18.8151
1.49749 -3.48688 18.8064
1.52044 -3.48357 18.79
1.54222 -3.48293 18.7803
1.56435 -3.48003 18.7631
1.58614 -3.48039 18.7576
1.60791 -3.48076 18.752
1.63033 -3.47973 18.7433
1.65331 -3.47963 18.74
1.67957 -3.48048 18.7509
1.70197 -3.48132 18.7493
1.72493 -3.48122 18.746
1.74663 -3.48159 18.7404
1.7683 -3.48197 18.7347
1.79467 -3.48269 18.7454
1.81949 -3.48274 18.7485
1.84209 -3.48451 18.751
1.86688 -3.48782 18.766
1.89085 -3.49319 18.7859
1.91651 -3.49359 18.7928
1.94458 -3.499 18.8253
1.96923 -3.50419 18.8462
1.9949 -3.51349 18.885
2.02469 -3.52616 18.9482
2.05214 -3.53318 18.9835
2.07728 -3.5373 19.0011
2.10194 -3.53978 19.0113
2.12659 -3.53726 19.0036
2.1505 -3.53922 19.0095
2.17295 -3.53985 19.0063
2.19563 -3.54141 19.0071
2.2193 -3.54245 19.009
2.24411 -3.54495 19.0194
2.27156 -3.54677 19.0352
2.29674 -3.55014 19.0495
2.32184 -3.55362 19.0638
2.34778 -3.55847 19.0852
2.37179 -3.56202 19.0963
2.40201 -3.57355 19.1525
2.42991 -3.58101 19.1878
2.46005 -3.59211 19.2416
-0.303225 -3.73107 20.3317
-0.275128 -3.72961 20.3345
-0.250828 -3.72981 20.3288
-0.226542 -3.73002 20.3231
-0.199313 -3.73033 20.3319
-0.172073 -3.73064 20.3406
-0.12405 -3.72568 20.2966
-0.099848 -3.72589 20.2908
-0.0423711 -3.71328 20.2489
0.00610539 -3.70401 20.1856
0.0350762 -3.69558 20.1552
0.0582832 -3.69052 20.1176
0.104727 -3.68222 20.0532
0.133065 -3.67214 20.0127
0.161446 -3.66296 19.9775
0.207077 -3.65394 19.9089
0.235012 -3.644 19.8689
0.280331 -3.63594 19.8061
0.305339 -3.62858 19.7681
0.332883 -3.61876 19.7287
0.357694 -3.61146 19.691
0.385033 -3.60171 19.6519
0.40265 -3.60527 19.6394
0.429824 -3.59555 19.6005
0.454735 -3.59002 19.5733
0.479123 -3.58284 19.5362
0.496583 -3.58639 19.5237
0.523411 -3.57677 19.4853
0.547121 -3.57377 19.4667
0.573108 -3.5675 19.4416
0.596714 -3.56451 19.423
0.622578 -3.55827 19.3981
0.644934 -3.55693 19.3828
0.664704 -3.55804 19.3689
0.69239 -3.54939 19.3404
0.715466 -3.54889 19.3323
0.739425 -3.54774 19.3247
0.764368 -3.54465 19.3119
0.78735 -3.54253 19.2962
0.810247 -3.5409 19.2826
0.83412 -3.54074 19.2795
0.857608 -3.53961 19.2705
0.880222 -3.53896 19.2605
0.903621 -3.53686 19.247
0.926224 -3.53718 19.2415
0.950316 -3.53267 19.2201
0.974287 -3.52921 19.2031
0.998337 -3.52368 19.1774
1.02221 -3.52024 19.1605
1.04477 -3.51851 19.1464
1.06778 -3.51652 19.1329
1.09096 -3.51542 19.124
1.11422 -3.51145 19.1031
1.1372 -3.50701 19.0794
1.15959 -3.50449 19.0619
1.17761 -3.50197 19.029
1.20141 -3.49661 19.005
1.22467 -3.49033 18.9754
1.24832 -3.48784 18.9632
1.27047 -3.48536 18.946
1.29246 -3.48053 18.9186
1.31618 -3.47853 18.9091
1.3386 -3.47325 18.8818
1.36096 -3.4722 18.8717
1.38255 -3.47116 18.8592
1.40301 -3.47059 18.8447
1.42451 -3.46762 18.8242
1.44915 -3.46431 18.8133
1.47355 -3.46514 18.8181
1.49647 -3.46038 18.7957
1.51821 -3.45842 18.7806
1.54004 -3.4588 18.7751
1.563 -3.45731 18.7661
1.58603 -3.45722 18.7629
1.60781 -3.45759 18.7573
1.62956 -3.45797 18.7518
1.65256 -3.45788 18.7485
1.67496 -3.45872 18.7469
1.69938 -3.45942 18.7513
1.72331 -3.45808 18.7464
1.74591 -3.45985 18.7489
1.76824 -3.45884 18.7401
1.79241 -3.46027 18.7464
1.81754 -3.46145 18.7548
1.84046 -3.46137 18.7514
1.86565 -3.46562 18.7712
1.89019 -3.47141 18.7946
1.91506 -3.47147 18.7977
1.9409 -3.47451 18.8147
1.9657 -3.48088 18.8405
1.99235 -3.48843 18.8761
2.02007 -3.49696 18.9183
2.0482 -3.50728 18.9679
2.07395 -3.51101 18.9861
2.09929 -3.512 18.9931
2.12107 -3.51236 18.987
2.14787 -3.51312 18.9975
2.17236 -3.51239 18.9958
2.19314 -3.5151 18.9949
2.2169 -3.51628 18.9976
2.2425 -3.51882 19.0107
2.26739 -3.52415 19.0311
2.29252 -3.52422 19.0339
2.31784 -3.52653 19.045
2.34383 -3.53246 19.0703
2.37066 -3.53525 19.0873
2.39446 -3.54226 19.1095
2.42609 -3.55035 19.1582
2.45718 -3.56353 19.2222
2.48389 -3.56794 19.2434
-0.308189 -3.71251 20.3545
-0.276666 -3.7088 20.3607
-0.252336 -3.70901 20.355
-0.226877 -3.70872 20.3518
-0.200762 -3.70952 20.358
-0.174978 -3.70978 20.3595
-0.150687 -3.71 20.3537
-0.122152 -3.70127 20.3173
-0.0971863 -3.69992 20.3061
-0.0697946 -3.69333 20.277
-0.047078 -3.69334 20.2634
-0.0190488 -3.68398 20.2226
0.00326282 -3.68241 20.1989
0.030834 -3.67484 20.1666
0.0594828 -3.66472 20.1256
0.0803095 -3.66489 20.1056
0.104727 -3.65863 20.0673
0.132729 -3.64833 20.0237
0.15999 -3.63986 19.9871
0.185452 -3.63242 19.9484
0.206819 -3.62879 19.9123
0.232466 -3.62166 19.8769
0.259935 -3.61154 19.8341
0.278943 -3.61301 19.8154
0.304182 -3.60461 19.7728
0.331522 -3.59591 19.738
0.358449 -3.58666 19.699
0.378866 -3.58558 19.6744
0.402424 -3.58044 19.6427
0.427386 -3.57349 19.6082
0.45362 -3.56627 19.5779
0.477839 -3.56019 19.5453
0.498615 -3.558 19.5181
0.523205 -3.55213 19.4886
0.546958 -3.54768 19.463
0.573298 -3.54028 19.4338
0.596542 -3.53849 19.4194
0.619823 -3.53617 19.4029
0.643854 -3.52794 19.3612
0.663954 -3.52964 19.3515
0.688127 -3.52613 19.3334
0.712613 -3.52321 19.3194
0.737068 -3.52192 19.313
0.762678 -3.51885 19.303
0.785323 -3.51772 19.2905
0.809513 -3.51224 19.2641
0.833718 -3.5125 19.2642
0.856367 -3.51283 19.2588
0.880109 -3.51178 19.2512
0.904379 -3.50798 19.2334
0.927576 -3.50656 19.2223
0.950753 -3.50556 19.2131
0.974056 -3.49938 19.1815
0.997093 -3.49824 19.1714
1.01914 -3.49219 19.1362
1.04137 -3.48729 19.107
1.0644 -3.48907 19.1101
1.08777 -3.48846 19.1041
1.11013 -3.48262 19.0718
1.1325 -3.47965 19.0522
1.15483 -3.47822 19.0393
1.17878 -3.47088 19.0071
1.20249 -3.46483 18.9798
1.22381 -3.46264 18.9605
1.24622 -3.46065 18.946
1.26886 -3.4535 18.911
1.28819 -3.45388 18.896
1.31095 -3.45347 18.8897
1.33478 -3.44626 18.8593
1.35605 -3.44531 18.8459
1.37873 -3.44419 18.8369
1.4019 -3.43806 18.8091
1.42378 -3.43745 18.7996
1.44566 -3.43782 18.7941
1.46814 -3.43762 18.7883
1.49215 -3.4347 18.777
1.51478 -3.43431 18.7711
1.53627 -3.4333 18.759
1.5611 -3.43366 18.7636
1.58243 -3.43082 18.7439
1.60729 -3.43003 18.7441
1.62968 -3.43058 18.7413
1.65242 -3.42733 18.7251
1.69729 -3.43041 18.7276
1.72474 -3.4277 18.7289
1.74692 -3.42885 18.7279
1.76794 -3.43063 18.7254
1.79018 -3.43539 18.7382
1.81453 -3.43561 18.7406
1.83979 -3.43961 18.7599
1.8641 -3.44127 18.7674
1.88949 -3.44466 18.7847
1.91279 -3.44846 18.7967
1.93749 -3.44981 18.804
1.96247 -3.45482 18.8256
1.98898 -3.45769 18.8439
2.01747 -3.46367 18.8795
2.04417 -3.47536 18.9301
2.07076 -3.47896 18.9507
2.09708 -3.48346 18.9735
2.1211 -3.48572 18.9811
2.14352 -3.48636 18.9779
2.16565 -3.48649 18.972
2.19053 -3.48688 18.9755
2.21665 -3.48829 18.9863
2.24175 -3.49159 19.0005
2.26718 -3.49646 19.0211
2.2898 -3.49811 19.022
2.31543 -3.49865 19.0279
2.34592 -3.50627 19.0727
2.36955 -3.50849 19.0783
2.39509 -3.51169 19.0928
2.42204 -3.51875 19.1245
2.44936 -3.52674 19.1602
2.48037 -3.5378 19.2168
2.51217 -3.54384 19.2584
-0.278293 -3.68616 20.376
-0.254045 -3.6846 20.3594
-0.223611 -3.68853 20.4046
-0.199382 -3.68697 20.3879
-0.175053 -3.68719 20.3821
-0.151042 -3.68386 20.3546
-0.121255 -3.67892 20.3453
-0.0972718 -3.67649 20.3232
-0.0455048 -3.66648 20.2685
0.00302824 -3.65734 20.2051
0.0320257 -3.64897 20.1746
0.0579733 -3.64144 20.1353
0.0838183 -3.63395 20.096
0.101899 -3.63669 20.0777
0.131399 -3.62413 20.0284
0.158385 -3.61587 19.9914
0.186216 -3.60425 19.9406
0.232016 -3.59714 19.8826
0.259689 -3.58647 19.8375
0.277557 -3.59006 19.8248
0.304859 -3.5786 19.7749
0.331192 -3.57054 19.7388
0.355 -3.56582 19.7095
0.381362 -3.55863 19.6787
0.426992 -3.54927 19.6137
0.454304 -3.54051 19.58
0.476555 -3.53752 19.5544
0.50088 -3.53044 19.5174
0.520656 -3.53074 19.4984
0.547644 -3.52206 19.4651
0.572219 -3.51667 19.4383
0.596978 -3.51211 19.4165
0.619633 -3.51162 19.4061
0.640424 -3.50546 19.3612
0.664135 -3.50336 19.3477
0.687236 -3.50288 19.3396
0.712301 -3.49675 19.3127
0.737594 -3.49466 19.3058
0.76203 -3.49499 19.307
0.78469 -3.4905 19.2789
0.807286 -3.48603 19.2509
0.829931 -3.48637 19.2454
0.854501 -3.4843 19.2364
0.878947 -3.48344 19.2325
0.902408 -3.48018 19.214
0.927444 -3.4786 19.2092
0.948199 -3.47132 19.1627
0.969675 -3.46929 19.1428
0.993535 -3.4659 19.126
1.01664 -3.46463 19.1159
1.03986 -3.46083 19.0951
1.06223 -3.46119 19.0897
1.08536 -3.46012 19.0808
1.10831 -3.45716 19.0631
1.13273 -3.45137 19.0388
1.1556 -3.44743 19.017
1.17913 -3.44409 19.0003
1.19786 -3.43745 18.9524
1.21922 -3.43626 18.9376
1.2428 -3.43234 18.9192
1.26553 -3.42688 18.8915
1.28832 -3.42586 18.8828
1.31082 -3.42198 18.8613
1.33329 -3.4201 18.8482
1.35671 -3.41768 18.8362
1.37909 -3.41482 18.8189
1.40144 -3.41197 18.8017
1.42404 -3.41096 18.793
1.44592 -3.41134 18.7876
1.46847 -3.41034 18.7789
1.48963 -3.41212 18.7766
1.5125 -3.40789 18.7562
1.53378 -3.41059 18.7582
1.56126 -3.41093 18.7716
1.62994 -3.40518 18.739
1.76839 -3.40825 18.7353
1.79108 -3.41017 18.7388
1.8143 -3.41286 18.7468
1.83911 -3.41783 18.7685
1.86395 -3.41788 18.7716
1.88921 -3.41973 18.7828
1.91211 -3.42391 18.795
1.93877 -3.42534 18.8089
1.96257 -3.42757 18.8166
1.98778 -3.4301 18.8297
2.01273 -3.43434 18.8482
2.03783 -3.43935 18.8698
2.0652 -3.44622 18.9049
2.0937 -3.45451 18.9485
2.11715 -3.45543 18.9496
2.14144 -3.45436 18.9462
2.16462 -3.45987 18.9628
2.18968 -3.45993 18.9658
2.21488 -3.46222 18.9769
2.23973 -3.46619 18.9929
2.26396 -3.46787 18.9988
2.2891 -3.47118 19.0131
2.3145 -3.47217 19.02
2.34154 -3.477 19.0451
2.36411 -3.48174 19.0563
2.38889 -3.48247 19.0602
2.4174 -3.49093 19.1016
2.44567 -3.49589 19.13
2.47678 -3.50593 19.1838
2.50959 -3.52114 19.2597
-0.257991 -3.67251 20.4256
-0.23115 -3.66483 20.3853
-0.203669 -3.66777 20.4105
-0.176625 -3.66435 20.3964
-0.152356 -3.66387 20.3862
-0.12687 -3.6606 20.3659
-0.0988631 -3.65301 20.3331
-0.0734041 -3.65064 20.3183
-0.0455488 -3.64308 20.2856
-0.0166852 -3.63208 20.2387
0.0017175 -3.63572 20.2256
0.0289656 -3.62562 20.1772
0.055299 -3.62072 20.1537
0.0823245 -3.61069 20.1057
0.104253 -3.60836 20.0769
0.130453 -3.60096 20.0403
0.158066 -3.59206 20.0023
0.185094 -3.58285 19.9606
0.2053 -3.58141 19.9304
0.230605 -3.5741 19.892
0.258293 -3.56348 19.8469
0.281105 -3.56042 19.8207
0.303488 -3.55568 19.7842
0.329835 -3.54765 19.7481
0.355758 -3.54098 19.7175
0.381442 -3.53499 19.6897
0.401089 -3.53364 19.6603
0.425686 -3.52652 19.6229
0.45279 -3.51697 19.5841
0.478287 -3.50991 19.5514
0.499611 -3.50779 19.5264
0.520688 -3.50689 19.5067
0.546158 -3.49866 19.4691
0.571901 -3.49167 19.4391
0.595755 -3.48957 19.4255
0.619957 -3.48553 19.404
0.641781 -3.48055 19.3687
0.662947 -3.48089 19.3566
0.686286 -3.47978 19.3463
0.712153 -3.47335 19.321
0.736438 -3.47224 19.3147
0.759445 -3.47018 19.299
0.783682 -3.46476 19.2726
0.806162 -3.46367 19.2597
0.829297 -3.46258 19.2495
0.852466 -3.45958 19.2307
0.877122 -3.45753 19.2221
0.900552 -3.45311 19.1982
0.922121 -3.4511 19.1782
0.947574 -3.44296 19.1456
0.970109 -3.4423 19.1358
0.993232 -3.43934 19.1181
1.01722 -3.43686 19.1059
1.03884 -3.43864 19.1038
1.06258 -3.43529 19.087
1.08502 -3.43364 19.073
1.11002 -3.4266 19.045
1.13237 -3.42496 19.031
1.15556 -3.42086 19.0096
1.17392 -3.41583 18.9669
