3.20243 -3.63784 20.8514
3.22967 -3.63792 20.8535
3.25751 -3.64044 20.865
3.2877 -3.64862 20.9012
3.32201 -3.65523 20.9437
3.35246 -3.66242 20.9769
3.39451 -3.67976 21.0741
3.44266 -3.70155 21.2017
-3.06138 -4.19276 24.2675
-3.0223 -4.18347 24.2361
-2.98615 -4.17391 24.167
-2.95778 -4.17613 24.1744
-2.92151 -4.17085 24.169
-2.88659 -4.16469 24.1362
-2.85804 -4.16569 24.1292
-2.82628 -4.16381 24.1199
-2.79454 -4.16194 24.1105
-2.76333 -4.16186 24.1189
-2.73302 -4.16272 24.1296
-2.70327 -4.1626 24.1215
-2.67354 -4.16248 24.1135
-2.64489 -4.16381 24.1122
-2.61481 -4.16616 24.138
-2.58602 -4.16899 24.1562
-2.55806 -4.17083 24.1535
-2.52753 -4.17221 24.1709
-2.49714 -4.17329 24.1831
-2.47062 -4.17991 24.2211
-2.44138 -4.18321 24.2465
-2.41333 -4.18505 24.2436
-2.3827 -4.18708 24.267
-2.3555 -4.19225 24.2928
-2.32822 -4.19744 24.3185
-2.30312 -4.20826 24.3846
-2.28016 -4.22211 24.4623
-2.25539 -4.23244 24.5171
-2.22993 -4.24239 24.5727
-2.20215 -4.24867 24.6097
-2.17198 -4.24851 24.6005
-2.14278 -4.24984 24.5983
-2.10986 -4.24971 24.6133
-2.07773 -4.24894 24.6149
-2.04761 -4.24878 24.6056
-2.01544 -4.24844 24.6116
-1.98683 -4.25254 24.6312
-1.95405 -4.24828 24.6044
-1.92391 -4.25088 24.6218
-1.88847 -4.24215 24.5752
-1.8615 -4.25002 24.6159
-1.82973 -4.25101 24.6307
-1.80036 -4.25379 24.6426
-1.76429 -4.24803 24.6291
-1.73446 -4.25 24.6371
-1.70446 -4.24985 24.6275
-1.67816 -4.25608 24.6459
-1.64755 -4.25959 24.6726
-1.61806 -4.26239 24.6843
-1.5865 -4.26419 24.7026
-1.55414 -4.26451 24.7139
-1.52559 -4.2698 24.7389
-1.49017 -4.26595 24.7369
-1.46788 -4.27859 24.7773
-1.43537 -4.27892 24.7884
-1.40285 -4.27926 24.7996
-1.37908 -4.28931 24.8276
-1.34482 -4.28806 24.8377
-1.31483 -4.29438 24.878
-1.28482 -4.30108 24.9207
-1.25375 -4.30568 24.9535
-1.22742 -4.31548 24.9941
-1.20227 -4.32773 25.0446
-1.16969 -4.32994 25.0675
-1.14181 -4.34566 25.1606
-1.11225 -4.3482 25.1649
2.61179 -3.6782 21.3254
2.626 -3.6872 21.317
2.64294 -3.67047 21.2259
2.66519 -3.65245 21.1475
2.68836 -3.63845 21.0865
2.70842 -3.63741 21.062
2.72981 -3.63251 21.0282
2.75105 -3.63021 21.0032
2.77478 -3.6254 20.9773
2.79845 -3.6206 20.9515
2.82201 -3.61837 20.9343
2.84547 -3.61872 20.9258
2.86896 -3.6165 20.9087
2.89394 -3.61074 20.8841
2.91833 -3.60958 20.8736
2.94419 -3.60998 20.8727
2.97004 -3.61038 20.8718
2.99436 -3.60719 20.8543
3.01917 -3.60859 20.8538
3.04241 -3.6064 20.8367
3.06675 -3.60714 20.8327
3.09595 -3.60584 20.836
3.12232 -3.60767 20.8414
3.14997 -3.60835 20.8467
3.17965 -3.61217 20.868
3.20237 -3.61404 20.8629
3.23076 -3.61451 20.8695
3.25915 -3.61498 20.876
3.28796 -3.62437 20.9122
3.32321 -3.63247 20.9623
3.3564 -3.6422 21.0113
3.39843 -3.65659 21.0995
3.43412 -3.66995 21.1661
-3.05744 -4.15515 24.2234
-3.02116 -4.15017 24.2216
-2.97621 -4.13074 24.1143
-2.94992 -4.13583 24.1392
-2.91903 -4.13666 24.1571
-2.88699 -4.13307 24.1264
-2.85057 -4.12494 24.0841
-2.81817 -4.12309 24.0828
-2.78822 -4.12348 24.0842
-2.75732 -4.12321 24.0872
-2.72642 -4.12295 24.0902
-2.69646 -4.12334 24.0915
-2.66678 -4.12324 24.0835
-2.63819 -4.12458 24.0824
-2.61138 -4.12997 24.1129
-2.58451 -4.13538 24.1434
-2.55583 -4.13672 24.142
-2.52507 -4.13774 24.1578
-2.49319 -4.13721 24.1662
-2.46621 -4.14233 24.192
-2.43998 -4.14951 24.2339
-2.41121 -4.15085 24.2323
-2.37972 -4.1511 24.2442
-2.34822 -4.15135 24.2562
-2.3236 -4.15789 24.2729
-2.2973 -4.16582 24.3201
-2.27273 -4.17827 24.3991
-2.25005 -4.19166 24.4692
-2.22129 -4.19648 24.5016
-2.19208 -4.19773 24.4999
-2.16546 -4.20659 24.5542
-2.13742 -4.21037 24.5674
-2.10292 -4.20727 24.5664
-2.07091 -4.20755 24.5782
-2.04085 -4.20742 24.569
-2.01152 -4.20908 24.5714
-1.97919 -4.20492 24.542
-1.95148 -4.20881 24.5528
-1.9151 -4.20352 24.5464
-1.88433 -4.20425 24.5517
-1.85456 -4.20727 24.5704
-1.82186 -4.20641 24.5759
-1.79252 -4.20807 24.5781
-1.76274 -4.21002 24.5861
-1.72882 -4.20812 24.5914
-1.69977 -4.21078 24.5999
-1.66919 -4.2092 24.5825
-1.64289 -4.215 24.5976
-1.61015 -4.21352 24.5973
-1.57625 -4.21226 24.6076
-1.54495 -4.21025 24.5922
-1.5156 -4.21517 24.6213
-1.48615 -4.21947 24.6456
-1.45849 -4.22644 24.6787
-1.42659 -4.22751 24.6926
-1.39441 -4.22481 24.6777
-1.36964 -4.23432 24.7098
-1.33883 -4.24091 24.7599
-1.30399 -4.23999 24.7771
-1.2783 -4.24825 24.8039
-1.24405 -4.247 24.8139
-1.21714 -4.25569 24.8514
-1.19345 -4.26754 24.8909
-1.15797 -4.26441 24.8938
-1.1298 -4.27881 24.9811
-1.10327 -4.29635 25.0799
-1.07466 -4.30024 25.0887
-1.0411 -4.30069 25.104
2.58677 -3.66408 21.3822
2.6091 -3.65119 21.3205
2.62547 -3.64714 21.2721
2.64217 -3.63477 21.1955
2.66482 -3.61844 21.124
2.68576 -3.61562 21.0955
2.71077 -3.60824 21.0638
2.73215 -3.60339 21.03
2.7533 -3.60369 21.0137
2.77627 -3.59719 20.9795
2.79818 -3.59666 20.9629
2.82175 -3.59445 20.9458
2.84641 -3.58863 20.9196
2.86876 -3.59006 20.9115
2.89616 -3.58648 20.9015
2.92063 -3.58577 20.8926
2.94463 -3.58423 20.8795
2.97239 -3.58149 20.8737
2.99534 -3.58077 20.8604
3.0204 -3.58084 20.8561
3.04476 -3.57756 20.8387
3.07093 -3.57907 20.8425
3.09722 -3.58009 20.845
3.12586 -3.58027 20.8515
3.15394 -3.581 20.8582
3.17834 -3.58123 20.8526
3.20327 -3.58554 20.8619
3.23134 -3.59006 20.8807
3.26374 -3.59187 20.9029
3.29428 -3.60088 20.943
3.33061 -3.60966 20.9983
3.36035 -3.61705 21.0303
3.3997 -3.63134 21.1109
3.44228 -3.64553 21.1997
-3.05199 -4.11648 24.1809
-3.01568 -4.11122 24.1756
-2.97956 -4.10323 24.1279
-2.94468 -4.099 24.1211
-2.91139 -4.09575 24.1096
-2.8792 -4.09226 24.0825
-2.84694 -4.08936 24.0648
-2.81575 -4.08904 24.071
-2.78606 -4.08895 24.0632
-2.75494 -4.08917 24.0755
-2.7248 -4.08995 24.0842
-2.69413 -4.0893 24.0799
-2.66447 -4.08922 24.0719
-2.63483 -4.08914 24.064
-2.60681 -4.09426 24.1044
-2.58152 -4.10079 24.1331
-2.55259 -4.10208 24.1341
-2.52235 -4.10341 24.1488
-2.49099 -4.1031 24.1547
-2.46161 -4.10592 24.1777
-2.43457 -4.1116 24.2109
-2.40907 -4.11667 24.221
-2.37761 -4.11691 24.233
-2.34612 -4.11716 24.2449
-2.32055 -4.12223 24.2548
-2.29435 -4.12941 24.2935
-2.26809 -4.13943 24.3631
-2.24046 -4.14692 24.4162
-2.21652 -4.15637 24.4555
-2.18846 -4.16049 24.4743
-2.16134 -4.16561 24.4948
-2.12933 -4.16643 24.5133
-2.09983 -4.16995 24.5373
-2.06523 -4.16563 24.5251
-2.03752 -4.16932 24.5348
-2.00461 -4.16554 24.5138
-1.97414 -4.16595 24.5141
-1.94332 -4.16438 24.498
-1.91097 -4.16394 24.5056
-1.87976 -4.16522 24.5205
-1.84963 -4.16453 24.5073
-1.81899 -4.1655 24.5142
-1.78597 -4.16481 24.5245
-1.75628 -4.16676 24.5326
-1.72699 -4.16842 24.5347
-1.69506 -4.16433 24.5053
-1.66582 -4.16735 24.5193
-1.63227 -4.16509 24.519
-1.60255 -4.16703 24.5269
-1.57043 -4.16671 24.5326
-1.54261 -4.17428 24.5748
-1.50846 -4.16548 24.5225
-1.47984 -4.17174 24.5584
-1.44743 -4.17126 24.5645
-1.41781 -4.17324 24.5709
-1.38927 -4.17671 24.5818
-1.35715 -4.17765 24.597
-1.32956 -4.18719 24.65
-1.29553 -4.18594 24.6601
-1.27126 -4.19882 24.7154
-1.23642 -4.19483 24.7085
-1.20759 -4.19797 24.7169
-1.18335 -4.21048 24.767
-1.15181 -4.21392 24.7952
-1.12116 -4.21761 24.8188
-1.0931 -4.23073 24.8965
-1.06473 -4.23899 24.9384
-1.03602 -4.24979 25.0006
-1.00311 -4.2561 25.0558
2.58668 -3.63445 21.3761
2.60412 -3.62154 21.2986
2.62402 -3.60617 21.2205
2.64119 -3.60329 21.1793
2.66429 -3.59121 21.1241
2.68652 -3.58896 21.1015
2.71062 -3.57989 21.0607
2.73431 -3.57939 21.0493
2.75811 -3.57463 21.0232
2.77939 -3.56985 20.9896
2.80045 -3.57018 20.9734
2.82229 -3.57137 20.9626
2.84761 -3.56327 20.9305
2.8711 -3.5611 20.9133
2.89809 -3.56189 20.917
2.92547 -3.55941 20.9107
2.94886 -3.55725 20.8936
2.97221 -3.5551 20.8765
2.99637 -3.5538 20.8648
3.0228 -3.55302 20.8617
3.04972 -3.55381 20.8652
3.07401 -3.55471 20.8615
3.10031 -3.55412 20.8586
3.12827 -3.55543 20.8669
3.15553 -3.55551 20.869
3.17874 -3.55589 20.8605
3.20729 -3.5614 20.8841
3.23589 -3.56692 20.9077
3.26434 -3.56738 20.9143
3.2989 -3.57771 20.9701
3.33383 -3.58482 21.0163
3.36713 -3.59447 21.0656
3.40374 -3.60788 21.1359
-3.05431 -4.08735 24.1842
-3.01072 -4.07492 24.1618
-2.98291 -4.07569 24.1414
-2.95134 -4.07389 24.1295
-2.90986 -4.06275 24.1019
-2.87983 -4.06144 24.0799
-2.85022 -4.06189 24.0782
-2.81902 -4.06157 24.0845
-2.78931 -4.06149 24.0767
-2.75818 -4.0617 24.089
-2.72804 -4.06248 24.0978
-2.69735 -4.06184 24.0935
-2.66767 -4.06176 24.0855
-2.63801 -4.06169 24.0775
-2.60747 -4.06304 24.0973
-2.58376 -4.07194 24.1397
-2.55574 -4.07457 24.1478
-2.5255 -4.07589 24.1625
-2.49413 -4.07558 24.1685
-2.46338 -4.07695 24.1882
-2.43667 -4.0826 24.2179
-2.41218 -4.08909 24.2348
-2.38071 -4.08933 24.2469
-2.34921 -4.08957 24.2589
-2.32002 -4.09063 24.258
-2.29641 -4.10323 24.3335
-2.26708 -4.10556 24.3471
-2.24328 -4.11695 24.4083
-2.21424 -4.12048 24.4309
-2.18982 -4.13073 24.4831
-2.15983 -4.13063 24.4741
-2.12795 -4.13089 24.486
-2.09606 -4.13115 24.4978
-2.06502 -4.1305 24.4925
-2.03663 -4.13212 24.4874
-2.00423 -4.13122 24.4915
-1.97229 -4.13149 24.5032
-1.94236 -4.13139 24.494
-1.91049 -4.13111 24.4994
-1.88049 -4.13157 24.4964
-1.84873 -4.12974 24.4859
-1.81702 -4.1298 24.4933
-1.78599 -4.13028 24.4988
-1.75567 -4.13286 24.5181
-1.72312 -4.13027 24.507
-1.6933 -4.13019 24.4976
-1.6635 -4.1301 24.4881
-1.63246 -4.13058 24.4935
-1.59861 -4.12724 24.4862
-1.56761 -4.12671 24.4823
-1.53705 -4.12585 24.4722
-1.50496 -4.12614 24.4834
-1.47287 -4.12643 24.4947
-1.44391 -4.1278 24.492
-1.41481 -4.1315 24.5099
-1.38308 -4.13354 24.5325
-1.35681 -4.13863 24.541
-1.32529 -4.14038 24.5589
-1.29483 -4.14713 24.6099
-1.26594 -4.15288 24.6409
-1.23635 -4.1566 24.66
-1.20483 -4.15838 24.6766
-1.17901 -4.16702 24.7079
-1.15063 -4.17271 24.733
-1.11859 -4.17578 24.7621
-1.08647 -4.17887 24.7911
-1.05792 -4.18458 24.8162
-1.02888 -4.19291 24.8637
-1.00099 -4.20713 24.947
-0.975643 -4.22033 25.0047
-0.946672 -4.22888 25.0506
2.5635 -3.62812 21.4682
2.58462 -3.59696 21.335
2.6025 -3.59027 21.2812
2.64001 -3.57597 21.1772
2.66488 -3.5645 21.1294
2.68724 -3.56331 21.1109
2.71358 -3.55584 21.0826
2.73568 -3.55449 21.063
2.75774 -3.55314 21.0435
2.78406 -3.54589 21.0165
2.80266 -3.54622 20.9926
2.8262 -3.54659 20.984
2.84723 -3.5461 20.9649
2.87585 -3.53807 20.9429
2.9003 -3.53813 20.9363
2.92441 -3.53717 20.9253
2.94865 -3.53588 20.9136
2.97202 -3.53374 20.8964
2.99536 -3.53161 20.8794
3.02459 -3.53037 20.8829
3.05299 -3.53082 20.8896
3.07627 -3.53121 20.8811
3.1033 -3.53131 20.8826
3.13309 -3.5321 20.8944
3.15633 -3.5325 20.8859
3.184 -3.53714 20.9042
3.21171 -3.54179 20.9225
3.23995 -3.54272 20.93
3.26704 -3.54604 20.942
3.29853 -3.55412 20.9819
3.33554 -3.56433 21.0441
3.37111 -3.57406 21.1003
3.40925 -3.58797 21.1767
-3.05303 -4.05422 24.1715
-3.0193 -4.05145 24.172
-2.98036 -4.04157 24.1293
-2.9496 -4.04118 24.1287
-2.91396 -4.0361 24.1188
-2.88046 -4.03064 24.0773
-2.8479 -4.02795 24.0657
-2.81658 -4.02756 24.0727
-2.7869 -4.02749 24.0649
-2.75556 -4.02711 24.0718
-2.72492 -4.02743 24.0803
-2.69499 -4.02783 24.0817
-2.66534 -4.02777 24.0738
-2.63677 -4.02913 24.0727
-2.60901 -4.03273 24.0919
-2.58316 -4.03973 24.1339
-2.55547 -4.04278 24.144
-2.52341 -4.04189 24.1503
-2.4955 -4.04611 24.1767
-2.46669 -4.04936 24.1997
-2.43878 -4.05359 24.2249
-2.41003 -4.05495 24.2234
-2.37857 -4.05517 24.2354
-2.35057 -4.06001 24.2673
-2.32424 -4.06381 24.2698
-2.29611 -4.06866 24.3016
-2.267 -4.07405 24.3481
-2.24125 -4.0826 24.397
-2.21086 -4.08498 24.4198
-2.18782 -4.09629 24.4718
-2.15785 -4.09621 24.4629
-2.12593 -4.09545 24.4647
-2.09338 -4.09497 24.4751
-2.06418 -4.09663 24.4777
-2.03264 -4.09435 24.4602
-2.00235 -4.0968 24.4804
-1.97477 -4.10251 24.5099
-1.93886 -4.09275 24.4548
-1.90592 -4.09032 24.4486
-1.87374 -4.08695 24.4268
-1.84446 -4.09046 24.448
-1.80991 -4.08748 24.45
-1.7816 -4.08927 24.4465
-1.75224 -4.09215 24.4617
-1.71581 -4.0864 24.4525
-1.68906 -4.09112 24.4637
-1.65671 -4.08783 24.4452
-1.62699 -4.08776 24.4358
-1.5973 -4.0877 24.4264
-1.56312 -4.0847 24.4253
-1.5316 -4.08543 24.4369
-1.49973 -4.0816 24.4112
-1.47183 -4.08685 24.435
-1.44073 -4.08859 24.4518
-1.40735 -4.08371 24.4287
-1.3789 -4.08681 24.4373
-1.35305 -4.09538 24.4728
-1.31695 -4.0899 24.4646
-1.28827 -4.0992 24.5252
-1.26392 -4.10951 24.5625
-1.22912 -4.1054 24.5557
-1.19936 -4.1101 24.5846
-1.17875 -4.12574 24.6367
-1.1401 -4.11515 24.6047
-1.11297 -4.12859 24.6828
-1.08545 -4.13776 24.7291
-1.05539 -4.13892 24.7301
-1.0261 -4.14835 24.7888
-0.994233 -4.15397 24.8347
-0.966951 -4.16035 24.8557
-0.938112 -4.17531 24.95
-0.905977 -4.17916 24.9823
-0.87784 -4.18589 25.0094
2.54184 -3.59545 21.47
2.56193 -3.58863 21.4215
2.57739 -3.57249 21.3246
2.6018 -3.55732 21.2605
2.64079 -3.54869 21.1813
2.66454 -3.54033 21.141
2.68842 -3.53815 21.1236
2.71192 -3.5324 21.0924
2.73616 -3.53125 21.0801
2.75992 -3.52909 21.0628
2.7837 -3.52439 21.0367
2.80655 -3.52138 21.014
2.82946 -3.52109 21.001
2.85299 -3.52148 20.9925
2.87761 -3.5148 20.9628
2.9016 -3.51368 20.9506
2.92503 -3.51408 20.9421
2.94997 -3.51196 20.9295
2.97235 -3.50933 20.9076
2.99963 -3.50712 20.9019
3.02698 -3.50734 20.9048
3.05199 -3.50607 20.8957
3.07681 -3.50599 20.89
3.1048 -3.50729 20.8983
3.13162 -3.50887 20.9041
3.1595 -3.51031 20.9124
3.18913 -3.51328 20.9309
3.21303 -3.51721 20.9358
3.24104 -3.51916 20.946
3.27038 -3.52403 20.9695
3.30579 -3.53203 21.0205
3.34257 -3.54191 21.0811
3.37785 -3.55196 21.1376
3.41533 -3.56606 21.213
-3.04785 -4.01678 24.141
-3.01204 -4.01231 24.1423
-2.97704 -4.00635 24.1096
-2.94284 -4.00223 24.0957
-2.90798 -3.99789 24.0873
-2.87842 -3.99656 24.0586
-2.84661 -3.995 24.0546
-2.81414 -3.99357 24.0608
-2.78448 -3.99352 24.053
-2.75339 -3.9937 24.0654
-2.72328 -3.99447 24.0743
-2.69263 -3.99385 24.07
-2.663 -3.99381 24.0621
-2.63338 -3.99376 24.0542
-2.60465 -3.99724 24.0831
-2.5765 -4.00063 24.1039
-2.55048 -4.00514 24.1155
-2.52103 -4.00778 24.1394
-2.49402 -4.01255 24.1638
-2.46669 -4.01736 24.1914
-2.43762 -4.02088 24.2203
-2.40788 -4.02082 24.2119
-2.37644 -4.02104 24.224
-2.34919 -4.02636 24.2545
-2.32128 -4.02942 24.2644
-2.29402 -4.03498 24.2965
-2.26194 -4.03761 24.3407
-2.2375 -4.04634 24.3801
-2.20835 -4.04929 24.3982
-2.17999 -4.05359 24.4235
-2.15181 -4.05667 24.4332
-2.12365 -4.05966 24.4413
-2.09008 -4.05748 24.4431
-2.05736 -4.05566 24.4411
-2.02749 -4.0556 24.4322
-1.99713 -4.05603 24.4327
-1.96348 -4.05008 24.3966
-1.93611 -4.0537 24.4039
-1.90209 -4.05084 24.4031
-1.87121 -4.05132 24.4088
-1.83759 -4.04726 24.3927
-1.80693 -4.05045 24.4228
-1.77449 -4.04792 24.4119
-1.74263 -4.0447 24.3899
-1.71272 -4.04494 24.3854
-1.68287 -4.04433 24.3723
-1.65297 -4.04511 24.3728
-1.61889 -4.04094 24.3607
-1.58857 -4.04198 24.3669
-1.55999 -4.04534 24.3804
-1.52943 -4.04317 24.3594
-1.49694 -4.04176 24.3602
-1.46252 -4.03907 24.3642
-1.43438 -4.04087 24.3604
-1.40456 -4.04379 24.3785
-1.37251 -4.04316 24.3825
-1.34259 -4.04293 24.3743
-1.31105 -4.04432 24.3913
-1.28097 -4.04844 24.4204
-1.25493 -4.05848 24.4688
-1.22244 -4.05706 24.4685
-1.1939 -4.06015 24.477
-1.16658 -4.06955 24.5273
-1.1367 -4.07236 24.542
-1.10529 -4.07477 24.5637
-1.08055 -4.09026 24.6421
-1.04701 -4.0864 24.6284
-1.01948 -4.09731 24.6881
-0.98929 -4.10375 24.7306
-0.96001 -4.10505 24.7274
-0.929966 -4.11603 24.8018
-0.900119 -4.12367 24.8489
-0.875308 -4.14019 24.9281
-0.844131 -4.14925 24.9924
1.56028 -3.57067 21.5971
1.58515 -3.57099 21.5887
1.61211 -3.57488 21.6038
1.63322 -3.56899 21.5544
1.66045 -3.56786 21.5489
1.68812 -3.5644 21.5351
1.71336 -3.5621 21.5173
1.74201 -3.56598 21.5385
1.76955 -3.56547 21.5369
1.79476 -3.57109 21.5525
1.82479 -3.56766 21.5476
1.85033 -3.57446 21.5691
1.88214 -3.57222 21.5757
2.52096 -3.57498 21.5195
2.53798 -3.55851 21.4247
2.57726 -3.54147 21.3128
2.60057 -3.52657 21.246
2.6183 -3.52819 21.2221
2.64013 -3.52087 21.1789
2.6642 -3.51614 21.1526
2.68809 -3.51398 21.1352
2.71294 -3.50759 21.1057
2.73586 -3.50713 21.0916
2.75962 -3.50498 21.0743
2.78342 -3.50031 21.0482
2.80709 -3.49818 21.0309
2.83072 -3.49605 21.0137
2.85427 -3.49645 21.0051
2.87873 -3.49013 20.976
2.90289 -3.4892 20.9649
2.92565 -3.49094 20.9589
2.95224 -3.48586 20.941
2.97926 -3.48341 20.9336
3.00365 -3.48182 20.9212
3.03005 -3.48125 20.9185
3.0544 -3.48217 20.9147
3.08028 -3.48259 20.9138
3.10719 -3.48352 20.9176
3.13546 -3.48346 20.9221
3.16416 -3.48641 20.9379
3.18906 -3.48934 20.9424
3.21683 -3.49396 20.9608
3.24469 -3.49574 20.97
3.27618 -3.50181 21.0037
3.30742 -3.50791 21.0365
3.3436 -3.51683 21.0925
3.37824 -3.52747 21.1493
3.41423 -3.53853 21.2108
-3.05195 -3.9919 24.1895
-3.01095 -3.97995 24.1383
-2.98113 -3.9799 24.1306
-2.94979 -3.97762 24.1077
-2.90717 -3.96607 24.0871
-2.87813 -3.96592 24.0694
-2.84855 -3.96639 24.0678
-2.81738 -3.96606 24.0742
-2.7877 -3.96602 24.0664
-2.75651 -3.96569 24.0727
-2.72649 -3.96696 24.0877
-2.69583 -3.96634 24.0834
-2.66618 -3.96631 24.0755
-2.63654 -3.96628 24.0676
-2.60533 -3.96596 24.0738
-2.57596 -3.96821 24.0934
-2.55269 -3.97629 24.122
-2.52411 -3.97971 24.1468
-2.49282 -3.97991 24.1591
-2.46682 -3.98657 24.1966
-2.44073 -3.99325 24.234
-2.41097 -3.99321 24.2257
-2.37952 -3.99341 24.2378
-2.34864 -3.99474 24.2576
-2.32347 -4.00128 24.2813
-2.29707 -4.0073 24.3104
-2.2642 -4.0077 24.3372
-2.24171 -4.01937 24.392
-2.21055 -4.02021 24.4055
-2.17983 -4.02153 24.4201
-2.15138 -4.02417 24.4277
-2.12646 -4.03066 24.4442
-2.09215 -4.02762 24.4434
-2.05543 -4.02132 24.43
-2.02558 -4.02128 24.4211
-1.99575 -4.02124 24.4121
-1.96594 -4.0212 24.4031
-1.93615 -4.02116 24.3941
-1.90269 -4.01947 24.4003
-1.87085 -4.01971 24.4121
-1.83805 -4.0151 24.3833
-1.80785 -4.01602 24.3877
-1.77251 -4.01051 24.3721
-1.74165 -4.01099 24.3777
-1.712 -4.01096 24.3686
-1.6808 -4.00902 24.354
-1.65119 -4.009 24.3448
-1.6216 -4.00897 24.3356
-1.58922 -4.00754 24.3356
-1.55537 -4.00475 24.3347
-1.52475 -4.00442 24.331
-1.49428 -4.00352 24.3211
-1.45911 -3.99821 24.3082
-1.43068 -4.00204 24.3248
-1.40081 -4.00183 24.3168
-1.37179 -4.0035 24.3187
-1.34334 -4.00759 24.337
-1.31122 -4.00711 24.3431
-1.28001 -4.01074 24.377
-1.25202 -4.01748 24.4129
-1.22339 -4.02159 24.4311
-1.19182 -4.0245 24.4599
-1.16375 -4.02639 24.4555
-1.13616 -4.03447 24.4973
-1.10336 -4.03779 24.5365
-1.07435 -4.04342 24.5673
-1.04744 -4.04968 24.5883
-1.01649 -4.0519 24.6046
-0.988492 -4.06292 24.6688
-0.956389 -4.06589 24.6977
-0.928511 -4.07439 24.7399
-0.898707 -4.07962 24.7697
-0.872313 -4.09206 24.8303
-0.839908 -4.09987 24.8946
-0.80959 -4.11042 24.9645
-0.78364 -4.12129 25.0079
1.45086 -3.55515 21.6557
1.47285 -3.54722 21.5987
1.4996 -3.54257 21.5753
1.52265 -3.53348 21.5182
1.54778 -3.53095 21.4985
1.5685 -3.51732 21.4135
1.59535 -3.51738 21.4124
1.62349 -3.51802 21.4186
1.64956 -3.51838 21.4157
1.67561 -3.51873 21.4129
1.70073 -3.51648 21.3953
1.7302 -3.52336 21.433
1.75726 -3.51633 21.4025
1.78166 -3.51755 21.3973
1.81131 -3.52366 21.4318
1.83925 -3.52611 21.4445
1.87028 -3.5326 21.4851
1.90245 -3.54259 21.544
1.92886 -3.5412 21.5346
1.95839 -3.54371 21.5526
1.98531 -3.5437 21.5507
2.01383 -3.55498 21.6004
2.49698 -3.56225 21.5887
2.5126 -3.53991 21.4663
2.53621 -3.52688 21.4057
2.55352 -3.51947 21.3458
2.57632 -3.51238 21.3055
2.60072 -3.50013 21.2515
2.61793 -3.5039 21.2337
2.63977 -3.49663 21.1905
2.66385 -3.49193 21.1642
2.68776 -3.48978 21.1467
2.71262 -3.48342 21.1172
2.73555 -3.48298 21.1031
2.75933 -3.48085 21.0857
2.78306 -3.47873 21.0684
2.80763 -3.47493 21.0479
2.82959 -3.47366 21.0283
2.85315 -3.47407 21.0197
2.87759 -3.47029 20.9993
2.90619 -3.46569 20.9888
2.92966 -3.46611 20.9803
2.95312 -3.46402 20.9631
2.98162 -3.46194 20.9613
3.00756 -3.45986 20.9518
3.03603 -3.45863 20.9528
3.05939 -3.45905 20.9443
3.08403 -3.4599 20.941
3.10949 -3.45991 20.9374
3.13973 -3.46201 20.9549
3.16317 -3.46744 20.9635
3.19168 -3.46788 20.9702
3.21881 -3.47117 20.9823
3.24894 -3.47377 21.0007
3.28048 -3.48175 21.0409
3.31383 -3.48808 21.0806
3.3593 -3.50209 21.1802
3.39666 -3.51309 21.2458
-3.04846 -3.95551 24.1515
-3.0123 -3.95018 24.1431
-2.97856 -3.94584 24.1185
-2.94783 -3.94513 24.1125
-2.91046 -3.93851 24.1005
-2.87919 -3.93508 24.0599
-2.8462 -3.9325 24.0551
-2.81492 -3.9321 24.0622
-2.78526 -3.93208 24.0545
-2.75396 -3.93168 24.0614
-2.72335 -3.93199 24.0701
-2.69345 -3.9324 24.0716
-2.66382 -3.93238 24.0637
-2.63421 -3.93236 24.0559
-2.60502 -3.93455 24.0734
-2.57914 -3.94103 24.1113
-2.55207 -3.94413 24.116
-2.52186 -3.9457 24.1351
-2.49162 -3.94728 24.1543
-2.46693 -3.95577 24.2016
-2.43853 -3.95914 24.2224
-2.40879 -3.95912 24.2141
-2.38042 -3.96337 24.2447
-2.35286 -3.96788 24.2693
-2.32461 -3.97066 24.2793
-2.29513 -3.97355 24.3027
-2.26592 -3.97783 24.3393
-2.23924 -3.98481 24.3814
-2.20838 -3.98546 24.3903
-2.17877 -3.98791 24.4075
-2.15189 -3.99311 24.4291
-2.122 -3.99307 24.4203
-2.08748 -3.98948 24.4157
-2.05276 -3.98534 24.4072
-2.02528 -3.98916 24.4183
-1.99315 -3.98529 24.3895
-1.96406 -3.98695 24.392
-1.93192 -3.98369 24.3704
-1.89891 -3.98205 24.3735
-1.86766 -3.98246 24.3825
-1.83217 -3.97399 24.3377
-1.80425 -3.97765 24.3507
-1.77173 -3.97487 24.3386
-1.73966 -3.97436 24.3451
-1.7087 -3.97489 24.3523
-1.67909 -3.97488 24.3432
-1.64728 -3.97166 24.3216
-1.61773 -3.97166 24.3124
-1.58384 -3.96524 24.2784
-1.55182 -3.96445 24.282
-1.52179 -3.96694 24.3
-1.48862 -3.96064 24.2624
-1.4592 -3.96254 24.2703
-1.42932 -3.96211 24.2608
-1.3979 -3.96337 24.2778
-1.36612 -3.96306 24.2836
-1.33674 -3.96307 24.2742
-1.30618 -3.96554 24.2947
-1.27905 -3.97318 24.3336
-1.2483 -3.97518 24.3505
-1.21777 -3.97831 24.375
-1.19287 -3.98564 24.3936
-1.1601 -3.98468 24.3996
-1.13207 -3.9917 24.437
-1.09949 -3.99169 24.4487
-1.074 -4.00421 24.5113
-1.04003 -4.00282 24.5209
-1.01537 -4.01579 24.5795
-0.982207 -4.01642 24.5986
-0.958093 -4.02664 24.6307
-0.924761 -4.02629 24.6427
-0.896615 -4.03821 24.7133
-0.866372 -4.04172 24.7331
-0.83303 -4.04644 24.7819
-0.806321 -4.06007 24.8529
-0.781381 -4.07835 24.9455
-0.749822 -4.08241 24.9752
-0.7193 -4.08322 24.9744
1.26806 -3.53754 21.7456
1.28514 -3.52036 21.6229
1.31647 -3.53288 21.6965
1.33699 -3.51665 21.5933
1.36173 -3.51874 21.5922
1.38905 -3.50707 21.5384
1.41381 -3.50106 21.5007
1.43501 -3.48942 21.4241
1.46015 -3.48503 21.3961
1.48666 -3.47584 21.3523
1.51193 -3.47649 21.348
1.53662 -3.46985 21.3091
1.56227 -3.468 21.2954
1.58739 -3.46984 21.296
1.61239 -3.46653 21.2737
1.63879 -3.46942 21.2838
1.66729 -3.46635 21.2759
1.69445 -3.46871 21.2864
1.71997 -3.46805 21.2778
1.74767 -3.46944 21.2861
1.77261 -3.46871 21.2752
1.80086 -3.47017 21.2857
1.82807 -3.47253 21.2962
1.85655 -3.47862 21.3267
1.88551 -3.48156 21.3456
1.91332 -3.48296 21.3537
1.93933 -3.48488 21.3575
1.96717 -3.48378 21.3554
1.99511 -3.49423 21.4008
2.02679 -3.503 21.4523
2.05829 -3.5097 21.4942
2.08547 -3.51163 21.5014
2.11816 -3.52089 21.5572
2.14956 -3.52539 21.5891
2.18144 -3.53216 21.6313
2.20378 -3.52884 21.6002
2.40558 -3.54419 21.6903
2.42421 -3.53561 21.6274
2.4473 -3.53248 21.6007
2.46424 -3.51936 21.5159
2.4876 -3.51585 21.4892
2.50809 -3.50071 21.4097
2.52902 -3.49465 21.3663
2.55187 -3.49009 21.3351
2.57645 -3.48172 21.2956
2.60034 -3.47579 21.2632
2.61784 -3.4745 21.2275
2.64106 -3.4688 21.1944
2.66479 -3.46642 21.1752
2.68864 -3.46195 21.149
2.71293 -3.4599 21.1332
2.73772 -3.4588 21.1224
2.76151 -3.45669 21.105
2.78542 -3.44956 21.0702
2.80801 -3.45149 21.0637
2.83265 -3.4504 21.053
2.85883 -3.4458 21.0347
2.88276 -3.44515 21.0235
2.90949 -3.44214 21.0128
2.93367 -3.44123 21.0017
2.95647 -3.441 20.9887
2.98144 -3.43793 20.9727
3.00594 -3.43729 20.9637
3.03362 -3.43574 20.9613
3.06132 -3.43572 20.9642
3.08467 -3.43616 20.9556
3.11284 -3.43703 20.9628
3.14229 -3.44051 20.9827
3.16744 -3.44427 20.9906
3.19544 -3.44672 21.0025
3.22442 -3.4463 21.0076
3.25052 -3.45259 21.0265
3.28576 -3.45768 21.068
3.32025 -3.46818 21.1249
3.35489 -3.47871 21.1819
3.3897 -3.4893 21.2391
-3.01683 -3.92359 24.1573
-2.97752 -3.914 24.1216
-2.94447 -3.9101 24.0946
-2.91375 -3.91092 24.1138
-2.88111 -3.9077 24.0935
-2.84387 -3.89973 24.0591
-2.81317 -3.89926 24.0578
-2.78182 -3.89757 24.046
-2.75176 -3.89832 24.055
-2.72168 -3.89906 24.0639
-2.69107 -3.89847 24.0597
-2.66213 -3.89956 24.0595
-2.63253 -3.89956 24.0516
-2.60789 -3.90598 24.0757
-2.58049 -3.91156 24.1192
-2.55083 -3.91155 24.1112
-2.5196 -3.91172 24.1235
-2.49369 -3.91829 24.161
-2.4677 -3.92488 24.1986
-2.43633 -3.92506 24.2108
-2.40841 -3.92836 24.2255
-2.38221 -3.93497 24.263
-2.35419 -3.93827 24.2775
-2.32267 -3.93795 24.2835
-2.29285 -3.94021 24.303
-2.26749 -3.94967 24.3633
-2.23814 -3.95194 24.3769
-2.20706 -3.95207 24.3821
-2.17818 -3.95547 24.4034
-2.14993 -3.95829 24.4115
-2.11753 -3.95555 24.3963
-2.08465 -3.95325 24.3909
-2.05262 -3.95332 24.4038
-2.0203 -3.9494 24.3756
-1.99385 -3.953 24.3753
-1.96054 -3.9508 24.3754
-1.92768 -3.94627 24.3468
-1.8946 -3.94317 24.3356
-1.86407 -3.94096 24.3114
-1.83191 -3.94007 24.3155
-1.80016 -3.9403 24.3272
-1.77055 -3.9403 24.3182
-1.73984 -3.93973 24.3129
-1.70808 -3.94133 24.3378
-1.67626 -3.93746 24.3096
-1.64352 -3.93172 24.2715
-1.61168 -3.93007 24.2658
-1.58 -3.92804 24.2553
-1.54943 -3.92748 24.2499
-1.52147 -3.92917 24.2446
-1.48787 -3.92643 24.243
-1.4561 -3.92667 24.2544
-1.42476 -3.92361 24.2326
-1.39575 -3.92627 24.2442
-1.36508 -3.92701 24.2513
-1.33523 -3.92909 24.2638
-1.30473 -3.92855 24.2581
-1.27267 -3.93016 24.2824
-1.24363 -3.93151 24.2821
-1.21535 -3.93726 24.3132
-1.18626 -3.94286 24.3483
-1.15689 -3.94288 24.3387
-1.12537 -3.94572 24.3674
-1.09742 -3.95534 24.4257
-1.06579 -3.95669 24.442
-1.04017 -3.96312 24.4569
-1.01129 -3.96871 24.4874
-0.97864 -3.97355 24.537
-0.950536 -3.98158 24.5799
-0.919782 -3.98545 24.6077
-0.890849 -3.99051 24.632
-0.862493 -3.99835 24.6732
-0.832724 -4.00597 24.7213
-0.802656 -4.01302 24.7663
-0.775544 -4.02177 24.804
-0.746963 -4.03544 24.8867
-0.717341 -4.04355 24.934
-0.688605 -4.05358 24.9889
1.18689 -3.52596 21.8331
1.21029 -3.51405 21.7585
1.23241 -3.5054 21.6948
1.25637 -3.48996 21.6072
1.28013 -3.47463 21.5203
1.30236 -3.46461 21.4528
1.32718 -3.4598 21.4206
1.35196 -3.45905 21.4074
1.37738 -3.44813 21.3501
1.40246 -3.44028 21.306
1.42709 -3.44066 21.2981
1.452 -3.43284 21.2542
1.47868 -3.43115 21.2453
1.50376 -3.43044 21.2346
1.53113 -3.4306 21.2368
1.55675 -3.42868 21.223
1.58194 -3.42353 21.1934
1.60685 -3.42254 21.1813
1.634 -3.42521 21.1938
1.6605 -3.42355 21.1849
1.68539 -3.42285 21.1742
1.71133 -3.42228 21.168
1.73783 -3.42468 21.1767
1.76436 -3.42708 21.1855
1.79288 -3.42337 21.1755
1.81941 -3.42577 21.1842
1.84596 -3.42818 21.1929
1.8744 -3.43159 21.2126
1.89967 -3.43339 21.2139
1.92958 -3.43543 21.2329
1.95565 -3.43779 21.2392
1.98103 -3.43818 21.235
2.00823 -3.44054 21.2452
2.03815 -3.44146 21.2592
2.06585 -3.44949 21.2941
2.09714 -3.45189 21.3185
2.12675 -3.46046 21.3616
2.15502 -3.46597 21.3874
2.19037 -3.4805 21.4735
2.22424 -3.48994 21.5335
2.25357 -3.49708 21.5683
2.28883 -3.50737 21.6355
2.31484 -3.51484 21.6594
2.34389 -3.50971 21.6445
2.37158 -3.51011 21.6465
2.39057 -3.50006 21.5788
2.4138 -3.49526 21.5461
2.43789 -3.49454 21.5321
2.45729 -3.48209 21.4579
2.47938 -3.47666 21.4199
2.50318 -3.47107 21.3874
2.52739 -3.46526 21.3555
2.55207 -3.46165 21.3338
2.57431 -3.45187 21.2812
2.59828 -3.45229 21.2726
2.61775 -3.44511 21.2213
2.64422 -3.44299 21.2117
2.69479 -3.43456 21.1698
2.71861 -3.43415 21.1582
2.73989 -3.43458 21.1418
2.76116 -3.43418 21.1224
2.79009 -3.42622 21.1001
2.81377 -3.42581 21.0886
2.8374 -3.42625 21.08
2.86361 -3.42166 21.0617
2.88809 -3.41793 21.0412
2.91079 -3.41754 21.0272
2.9343 -3.41799 21.0186
2.95695 -3.4176 21.0045
3.00468 -3.41433 20.9755
3.03575 -3.41225 20.9815
3.06427 -3.41267 20.9883
3.08766 -3.41312 20.9797
3.11619 -3.41354 20.9865
3.13965 -3.41896 20.995
3.17125 -3.42151 21.018
3.19947 -3.4223 21.0249
3.22372 -3.42358 21.0216
3.25865 -3.43264 21.0759
3.28136 -3.43442 21.0696
3.31989 -3.44437 21.1367
3.36313 -3.45703 21.226
-3.05004 -3.89594 24.1783
-3.01055 -3.88497 24.119
-2.97927 -3.88419 24.1195
-2.94131 -3.8763 24.0936
-2.9112 -3.87693 24.1017
-2.88214 -3.87685 24.0839
-2.85013 -3.8743 24.066
-2.81752 -3.87252 24.069
-2.78503 -3.87003 24.0593
-2.75496 -3.87077 24.0683
-2.72487 -3.87151 24.0773
-2.69424 -3.87093 24.0731
-2.66642 -3.87283 24.0708
-2.6368 -3.87283 24.0629
-2.60631 -3.8743 24.0864
-2.57818 -3.87761 24.1074
-2.54854 -3.87762 24.0994
-2.52034 -3.88092 24.1203
-2.49576 -3.8893 24.1677
-2.46546 -3.89084 24.1868
-2.43942 -3.89739 24.2245
-2.40993 -3.89929 24.2381
-2.38282 -3.90403 24.262
-2.35204 -3.90414 24.266
-2.32438 -3.90816 24.2856
-2.29539 -3.91227 24.3197
-2.26755 -3.91753 24.355
-2.23703 -3.9191 24.3724
-2.20865 -3.92267 24.3915
-2.18018 -3.92636 24.4124
-2.14488 -3.91937 24.376
-2.1123 -3.91645 24.3607
-2.08402 -3.91975 24.375
-2.05237 -3.9186 24.3711
-2.02229 -3.91757 24.3538
-1.98997 -3.91613 24.3531
-1.95789 -3.91531 24.3571
-1.92344 -3.90894 24.3231
-1.89378 -3.90895 24.3142
-1.86181 -3.90578 24.2928
-1.8301 -3.90599 24.3045
-1.79837 -3.9062 24.3163
-1.76877 -3.90622 24.3073
-1.73693 -3.90306 24.2858
-1.70903 -3.90669 24.2987
-1.67156 -3.89469 24.2381
-1.64229 -3.89526 24.2329
-1.61214 -3.89628 24.2393
-1.57827 -3.89222 24.2274
-1.54676 -3.89095 24.2231
-1.51738 -3.89099 24.214
-1.48715 -3.89035 24.2056
-1.44907 -3.8815 24.1836
-1.41968 -3.88334 24.1916
-1.39107 -3.88522 24.1938
-1.35973 -3.88212 24.1724
-1.33498 -3.89009 24.1989
-1.29809 -3.88429 24.196
-1.27326 -3.89355 24.2335
-1.23743 -3.888 24.2245
-1.20943 -3.89258 24.2447
-1.18464 -3.90022 24.2668
-1.15143 -3.89925 24.277
-1.1242 -3.90576 24.3065
-1.09231 -3.90702 24.3253
-1.06729 -3.92066 24.3961
-1.03339 -3.91829 24.3986
-1.00813 -3.92977 24.4519
-0.972597 -3.92632 24.4563
-0.951097 -3.9404 24.503
-0.916676 -3.93728 24.502
-0.889767 -3.94604 24.5425
-0.859089 -3.95364 24.5986
-0.828041 -3.95754 24.628
-0.804103 -3.97433 24.7073
-0.770253 -3.97493 24.7289
-0.739151 -3.98017 24.7668
-0.712709 -3.99155 24.8193
-0.683809 -4.00094 24.872
-0.654115 -4.01224 24.9428
-0.624563 -4.01737 24.9671
1.05443 -3.49834 21.8637
1.08025 -3.49956 21.8615
1.10493 -3.49832 21.8423
1.12879 -3.48175 21.7451
1.15293 -3.48361 21.7396
1.17564 -3.46449 21.6269
1.20002 -3.45405 21.564
1.22389 -3.44294 21.4964
1.24759 -3.4341 21.4397
1.27117 -3.4253 21.3832
1.29759 -3.41534 21.3333
1.32203 -3.41598 21.3255
1.34532 -3.41001 21.2824
1.36985 -3.40276 21.2389
1.39492 -3.40111 21.2237
1.41905 -3.39847 21.2003
1.44633 -3.3973 21.1962
1.47505 -3.3919 21.1788
1.5006 -3.39012 21.1654
1.52667 -3.38977 21.1606
1.5511 -3.38905 21.1479
1.57602 -3.38805 21.1358
1.60092 -3.38592 21.1189
1.6264 -3.38723 21.1194
1.65511 -3.38538 21.1183
1.68173 -3.38844 21.1309
1.70764 -3.38348 21.1057
1.73256 -3.38707 21.114
1.75753 -3.38693 21.1064
1.78765 -3.38347 21.1038
1.8122 -3.38779 21.1137
1.83768 -3.39022 21.1189
1.86633 -3.38839 21.1177
1.89415 -3.38857 21.122
1.92031 -3.39643 21.1522
1.9481 -3.39831 21.1632
1.97351 -3.39468 21.1427
1.99864 -3.40276 21.1696
2.02729 -3.39975 21.1634
2.05487 -3.40236 21.1764
2.08602 -3.40774 21.2131
2.11274 -3.41066 21.2239
2.14283 -3.41709 21.2605
2.1735 -3.42455 21.303
2.20427 -3.43203 21.3455
2.23515 -3.43954 21.3881
2.26584 -3.44838 21.435
2.29679 -3.45177 21.4609
2.3279 -3.45809 21.4986
2.35572 -3.4584 21.5013
2.381 -3.4522 21.4702
2.4054 -3.45432 21.4684
2.42976 -3.45045 21.4436
2.45406 -3.4466 21.4187
2.47898 -3.44105 21.3897
2.50285 -3.44037 21.376
2.52819 -3.43526 21.3504
2.55125 -3.43128 21.3218
2.57392 -3.42748 21.2929
2.59813 -3.42393 21.2701
2.62228 -3.42075 21.2487
2.64497 -3.41758 21.2228
2.66773 -3.4191 21.2146
2.69181 -3.4145 21.1882
2.71926 -3.41038 21.1747
2.74464 -3.4078 21.1602
2.76686 -3.40925 21.1503
2.79225 -3.40367 21.1253
2.81519 -3.40079 21.1024
2.83883 -3.40123 21.0938
2.86332 -3.40001 21.0819
2.88699 -3.39547 21.0559
2.9121 -3.39292 21.0415
2.93494 -3.39471 21.0355
2.95913 -3.39383 21.0243
2.98362 -3.39328 21.0153
3.01134 -3.39353 21.019
3.0382 -3.39313 21.0179
3.06503 -3.39108 21.0109
3.09019 -3.39401 21.0161
3.11877 -3.39443 21.0229
3.1463 -3.39698 21.0338
3.17448 -3.39826 21.0422
3.20579 -3.39853 21.0565
3.231 -3.40807 21.0838
3.26234 -3.40899 21.1001
3.29683 -3.41938 21.1572
3.34043 -3.42979 21.2407
3.37168 -3.44029 21.2878
-3.00449 -3.84749 24.0957
-2.98256 -3.85655 24.1328
-2.94022 -3.84364 24.0824
-2.90896 -3.84361 24.0961
-2.87605 -3.8398 24.0692
-2.84795 -3.8412 24.0627
-2.81431 -3.83809 24.0582
-2.78462 -3.83835 24.0551
-2.75052 -3.83489 24.051
-2.72145 -3.83702 24.0688
-2.69293 -3.8384 24.068
-2.66331 -3.83842 24.0602
-2.63364 -3.83869 24.0569
-2.60614 -3.84277 24.0825
-2.57586 -3.84369 24.0956
-2.54625 -3.84371 24.0876
-2.516 -3.84547 24.1114
-2.49277 -3.85479 24.1573
-2.46323 -3.85683 24.1751
-2.4372 -3.86334 24.2128
-2.41017 -3.86823 24.2389
-2.38066 -3.87062 24.259
-2.34988 -3.87004 24.2544
-2.32098 -3.8734 24.2792
-2.29596 -3.88178 24.3256
-2.26558 -3.88381 24.348
-2.23399 -3.8835 24.3539
-2.20446 -3.88605 24.373
-2.17756 -3.89009 24.3829
-2.1436 -3.88449 24.3494
-2.11213 -3.88448 24.3572
-2.0813 -3.88392 24.3522
-2.04927 -3.88187 24.3419
-2.01745 -3.87868 24.3171
-1.98527 -3.87687 24.3113
-1.9529 -3.87466 24.3035
-1.9219 -3.87312 24.2901
-1.88957 -3.87169 24.2905
-1.85836 -3.86984 24.2762
-1.82765 -3.8703 24.2821
-1.79325 -3.86533 24.2639
-1.76182 -3.86422 24.2599
-1.73209 -3.86452 24.2556
-1.70048 -3.86149 24.234
-1.66946 -3.85966 24.2197
-1.63849 -3.85783 24.2053
-1.60626 -3.85347 24.177
-1.57742 -3.85513 24.1794
-1.54332 -3.8516 24.1749
-1.50796 -3.84544 24.1561
-1.47579 -3.84149 24.1327
-1.44701 -3.84315 24.135
-1.41688 -3.84119 24.1145
-1.38541 -3.84156 24.1258
-1.35478 -3.84341 24.144
-1.32558 -3.84348 24.1349
-1.29673 -3.84755 24.1587
-1.26554 -3.84883 24.1751
-1.23635 -3.8489 24.1659
-1.20433 -3.84962 24.1832
-1.17427 -3.85124 24.1935
-1.14692 -3.85435 24.1966
-1.11931 -3.86059 24.2276
-1.08775 -3.86245 24.2499
-1.05744 -3.8696 24.3063
-1.0301 -3.87364 24.3157
-0.999497 -3.87576 24.332
-0.97086 -3.88417 24.3848
-0.939586 -3.88583 24.4012
-0.91491 -3.89946 24.4666
-0.881722 -3.89577 24.4532
-0.85454 -3.90484 24.4984
-0.822054 -3.90917 24.5418
-0.796172 -3.92072 24.5957
-0.764983 -3.92384 24.6201
-0.735499 -3.92912 24.6489
-0.708636 -3.94031 24.7043
-0.677736 -3.9475 24.7551
-0.649025 -3.95698 24.808
-0.62179 -3.97257 24.8948
-0.590445 -3.98123 24.9563
0.973863 -3.48373 21.9458
0.996181 -3.4735 21.8701
1.02114 -3.4712 21.8464
1.04662 -3.45839 21.7728
1.07139 -3.44304 21.6844
1.09444 -3.43303 21.6158
1.12052 -3.4256 21.5736
1.14273 -3.41313 21.4908
1.16784 -3.40836 21.4585
1.19288 -3.40361 21.4263
1.21536 -3.38982 21.3404
1.24092 -3.38543 21.3131
1.26762 -3.3793 21.2824
1.29284 -3.37614 21.26
1.31782 -3.37165 21.2307
1.34072 -3.36933 21.2033
1.36728 -3.3607 21.1616
1.39233 -3.36002 21.1511
1.41679 -3.36043 21.1434
1.44528 -3.35554 21.1274
1.471 -3.35189 21.1063
1.496 -3.35257 21.1022
1.52035 -3.35299 21.0945
1.54469 -3.35341 21.0867
1.57014 -3.35273 21.0785
1.59616 -3.34752 21.0523
1.62406 -3.34658 21.0525
1.65126 -3.34683 21.0553
1.67659 -3.34529 21.0431
1.70295 -3.34766 21.0519
1.72873 -3.34713 21.0459
1.75447 -3.34546 21.0348
1.78188 -3.34681 21.0431
1.80614 -3.34831 21.0402
1.83417 -3.34826 21.0447
1.8619 -3.34988 21.0551
1.88796 -3.34957 21.0512
1.916 -3.35666 21.0855
1.9423 -3.35797 21.0891
1.96726 -3.35974 21.0896
1.99407 -3.36084 21.0941
2.02129 -3.35822 21.0847
2.04776 -3.3606 21.0932
2.07705 -3.36544 21.1216
2.10426 -3.3716 21.1479
2.13379 -3.37053 21.1527
2.16479 -3.377 21.1931
2.19307 -3.38348 21.2236
2.22103 -3.38781 21.2442
2.25407 -3.3985 21.3074
2.28239 -3.40394 21.333
2.31472 -3.40908 21.371
2.34527 -3.41248 21.3958
2.37215 -3.41491 21.4041
2.39906 -3.41735 21.4123
2.42536 -3.41572 21.4028
2.44689 -3.4094 21.3592
2.47384 -3.41041 21.3623
2.50009 -3.40633 21.3435
2.52726 -3.40616 21.3428
2.55118 -3.40177 21.3155
2.57459 -3.40154 21.3023
2.60041 -3.39591 21.2769
2.62373 -3.39301 21.2537
2.64703 -3.39279 21.2405
2.67204 -3.39021 21.2244
2.69505 -3.38765 21.2019
2.72045 -3.38558 21.1892
2.74344 -3.38521 21.1749
2.76809 -3.38398 21.163
2.79198 -3.37944 21.1368
2.81574 -3.3774 21.1194
2.83858 -3.37704 21.1052
2.86308 -3.37583 21.0934
2.88829 -3.37031 21.0685
2.91542 -3.36924 21.0656
2.93897 -3.3697 21.0569
2.96249 -3.37017 21.0483
2.9911 -3.3681 21.0466
3.01458 -3.36856 21.0379
3.0449 -3.36813 21.0471
3.07176 -3.36691 21.043
3.09524 -3.36986 21.0431
3.12302 -3.37193 21.0531
3.15099 -3.37367 21.0625
3.18119 -3.37358 21.0722
3.21256 -3.37646 21.0955
3.23775 -3.384 21.116
3.26507 -3.38728 21.1282
3.29681 -3.39516 21.1689
3.33779 -3.40634 21.2476
-2.97847 -3.82085 24.1123
-2.94213 -3.81479 24.0939
-2.91049 -3.81431 24.1052
-2.87644 -3.80972 24.0803
-2.84267 -3.80489 24.0485
-2.81253 -3.80473 24.0448
-2.78179 -3.80395 24.0392
-2.75015 -3.80348 24.0503
-2.71902 -3.80314 24.0568
-2.69124 -3.80505 24.0546
-2.66165 -3.80509 24.0469
-2.63094 -3.80431 24.0411
-2.60271 -3.80768 24.066
-2.57459 -3.81115 24.0905
-2.54757 -3.81424 24.0954
-2.51819 -3.81673 24.1195
-2.48869 -3.81828 24.1313
-2.46538 -3.82756 24.1772
-2.43497 -3.82931 24.201
-2.41119 -3.83824 24.2451
-2.38165 -3.84169 24.28
-2.35206 -3.84238 24.2783
-2.32229 -3.84409 24.2918
-2.29506 -3.84947 24.3242
-2.2667 -3.85378 24.3543
-2.23529 -3.85379 24.3623
-2.20487 -3.85363 24.3577
-2.16785 -3.84412 24.3076
-2.14337 -3.85104 24.3281
-2.11155 -3.85046 24.3331
-2.07856 -3.84815 24.3293
-2.04867 -3.84844 24.3252
-2.01667 -3.84539 24.3036
-1.98345 -3.84321 24.3039
-1.95234 -3.84051 24.2785
-1.92152 -3.8399 24.2738
-1.88824 -3.83725 24.2699
-1.85727 -3.83634 24.2637
-1.82553 -3.83333 24.2422
-1.79333 -3.83093 24.2316
-1.75881 -3.82868 24.2434
-1.72602 -3.82403 24.2151
-1.69716 -3.82569 24.2176
-1.66773 -3.82575 24.2088
-1.63546 -3.82142 24.1805
-1.60096 -3.81473 24.1483
-1.57089 -3.81346 24.1327
-1.53932 -3.81312 24.1387
-1.50906 -3.81056 24.1127
-1.47633 -3.80807 24.1078
-1.44345 -3.80595 24.1078
-1.41427 -3.80604 24.0988
-1.38288 -3.80335 24.0819
-1.3517 -3.8013 24.0694
-1.32451 -3.80898 24.1141
-1.29275 -3.80664 24.1033
-1.26324 -3.81004 24.1265
-1.23234 -3.81078 24.1363
-1.20606 -3.81681 24.1575
-1.17307 -3.81101 24.1261
-1.14356 -3.81433 24.1473
-1.11376 -3.81711 24.1659
-1.08547 -3.82381 24.2059
-1.05745 -3.83028 24.2414
-1.02574 -3.8289 24.2378
-0.995307 -3.83156 24.2583
-0.965894 -3.83803 24.302
-0.936912 -3.84214 24.3231
-0.908548 -3.84865 24.3586
-0.880113 -3.85518 24.3941
-0.851294 -3.8592 24.412
-0.81804 -3.86011 24.4352
-0.788972 -3.86539 24.4637
-0.761026 -3.87714 24.5337
-0.732409 -3.88635 24.5876
-0.702702 -3.88676 24.5818
-0.677521 -3.90467 24.6768
-0.643354 -3.90341 24.6866
-0.617208 -3.91996 24.7754
-0.588867 -3.9359 24.8722
-0.556883 -3.94701 24.9558
-0.53003 -3.95499 24.9833
0.8894 -3.45757 21.9543
0.915527 -3.45149 21.9152
0.94139 -3.4477 21.8871
0.965799 -3.4271 21.767
0.990312 -3.42071 21.7209
1.01491 -3.41116 21.6597
1.04083 -3.40561 21.625
1.06507 -3.3879 21.5227
1.0903 -3.38764 21.5125
1.11653 -3.37726 21.4566
1.13985 -3.36403 21.3749
1.16278 -3.36932 21.383
1.18914 -3.35819 21.3255
1.21197 -3.34906 21.2637
1.23672 -3.34444 21.2321
1.26212 -3.34121 21.2101
1.28807 -3.33657 21.184
1.31321 -3.33558 21.1721
1.33964 -3.32956 21.1418
1.36482 -3.32636 21.12
1.38926 -3.32678 21.1124
1.41426 -3.32581 21.1005
1.43992 -3.32012 21.0697
1.46549 -3.31831 21.0566
1.49171 -3.32033 21.0637
1.51922 -3.31681 21.0507
1.54503 -3.31913 21.0574
1.56959 -3.31832 21.0452
1.59568 -3.31196 21.0142
1.62047 -3.31293 21.0111
1.6473 -3.3128 21.011
1.67306 -3.31228 21.0051
1.69932 -3.31048 20.9955
1.72614 -3.31197 21.0024
1.75027 -3.31241 20.9947
1.7771 -3.3139 21.0016
1.80598 -3.31415 21.0108
1.83054 -3.31414 21.0027
1.85753 -3.31587 21.0111
1.88611 -3.31608 21.0188
1.91129 -3.31958 21.0279
1.93605 -3.32249 21.0329
1.96407 -3.32432 21.0451
1.99083 -3.32542 21.0496
2.01627 -3.32639 21.0488
2.04304 -3.32749 21.0533
2.07189 -3.32656 21.0569
2.09823 -3.33183 21.0768
2.12835 -3.33747 21.1114
2.15695 -3.33782 21.1189
2.18537 -3.34715 21.1619
2.21477 -3.34974 21.1809
2.24563 -3.35774 21.2265
2.27415 -3.36025 21.2416
2.30297 -3.36606 21.2708
2.33827 -3.37145 21.3202
2.36635 -3.38228 21.3659
2.39354 -3.37875 21.3521
2.42097 -3.38111 21.3621
2.44486 -3.38047 21.3484
2.46989 -3.38135 21.3446
2.4979 -3.37796 21.3344
2.52504 -3.37774 21.3334
2.54823 -3.37669 21.3162
2.5735 -3.37276 21.2951
2.60018 -3.36899 21.2795
2.62337 -3.36862 21.2652
2.64561 -3.36994 21.2543
2.67234 -3.36285 21.2268
2.69631 -3.36081 21.2093
2.72014 -3.36127 21.2007
2.74394 -3.36173 21.192
2.76788 -3.35721 21.1657
2.79323 -3.35417 21.1494
2.81797 -3.35313 21.1387
2.83996 -3.35445 21.1277
2.86536 -3.35158 21.1126
2.8891 -3.34463 21.0778
2.91875 -3.3455 21.0897
2.943 -3.34465 21.0785
2.96587 -3.34646 21.0724
2.99007 -3.3456 21.0612
3.01596 -3.3444 21.054
3.04414 -3.34481 21.0596
3.07166 -3.34524 21.0632
3.09644 -3.34693 21.0627
3.12492 -3.34893 21.0746
3.15655 -3.3486 21.0879
3.18381 -3.35186 21.1003
3.2114 -3.35847 21.1249
3.24287 -3.36134 21.1483
3.2737 -3.37008 21.1894
3.31334 -3.38072 21.2629
-2.97656 -3.78751 24.1005
-2.94554 -3.78761 24.1133
-2.90576 -3.77829 24.0878
-2.87318 -3.77519 24.0676
-2.84353 -3.77523 24.06
-2.81389 -3.77528 24.0524
-2.78327 -3.77471 24.0483
-2.75333 -3.77589 24.0636
-2.72219 -3.77555 24.07
-2.69258 -3.77559 24.0623
-2.66298 -3.77564 24.0546
-2.63239 -3.77509 24.0504
-2.60237 -3.77627 24.0654
-2.5712 -3.77594 24.0718
-2.54616 -3.78147 24.0885
-2.52019 -3.78729 24.1199
-2.49 -3.78877 24.1392
-2.46405 -3.79518 24.1768
-2.43804 -3.80161 24.2146
-2.40755 -3.80335 24.2384
-2.38343 -3.81245 24.2885
-2.3551 -3.81461 24.292
-2.32445 -3.81518 24.3002
-2.29377 -3.8173 24.3288
-2.26389 -3.81985 24.3532
-2.23394 -3.82014 24.3493
-2.20174 -3.8171 24.3278
-2.17029 -3.81526 24.3137
-2.14224 -3.81719 24.3107
-2.109 -3.815 24.311
-2.07682 -3.81457 24.3217
-2.04363 -3.81076 24.3024
-2.01397 -3.81081 24.2937
-1.98293 -3.80991 24.2876
-1.94951 -3.80435 24.252
-1.91994 -3.80442 24.2433
-1.88653 -3.80279 24.2521
-1.85245 -3.7988 24.2412
-1.82294 -3.79887 24.2325
-1.79323 -3.79918 24.2283
-1.76064 -3.79536 24.2065
-1.72686 -3.79207 24.2011
-1.69171 -3.78691 24.1886
-1.66202 -3.78609 24.1733
-1.63165 -3.78415 24.1529
-1.59629 -3.77651 24.1183
-1.56632 -3.77557 24.1054
-1.53565 -3.7736 24.0884
-1.5057 -3.77236 24.0728
-1.47455 -3.76946 24.0515
-1.44226 -3.76914 24.0643
-1.41164 -3.76953 24.07
-1.38088 -3.76812 24.0601
-1.35031 -3.76638 24.0459
-1.3227 -3.76833 24.0422
-1.29115 -3.76853 24.0534
-1.25957 -3.76874 24.0647
-1.23124 -3.77198 24.0779
-1.19995 -3.77376 24.1003
-1.17122 -3.77544 24.1023
-1.14216 -3.77555 24.0931
-1.113 -3.77701 24.0963
-1.0785 -3.77442 24.1041
-1.04994 -3.77714 24.1134
-1.02234 -3.78563 24.1636
-0.991905 -3.7858 24.1644
-0.958249 -3.78296 24.1633
-0.897537 -3.78434 24.1721
-0.841988 -3.80563 24.3025
-0.813535 -3.81209 24.3379
-0.779957 -3.80148 24.2744
-0.749667 -3.79982 24.2592
-0.720617 -3.79993 24.2494
-0.699578 -3.84669 24.5403
-0.671171 -3.86083 24.6295
-0.641918 -3.86417 24.6421
-0.609747 -3.8636 24.6445
-0.583224 -3.88159 24.7467
-0.551825 -3.88889 24.8006
-0.525473 -3.90897 24.9139
-0.495926 -3.91721 24.9607
0.812579 -3.44445 22.0674
0.834969 -3.43008 21.9658
0.858393 -3.42155 21.9008
0.883933 -3.40781 21.8188
0.910323 -3.39189 21.7302
0.934558 -3.3955 21.734
0.960402 -3.3802 21.6476
0.987155 -3.36753 21.5797
1.01141 -3.37055 21.5813
1.03667 -3.35857 21.5114
1.06102 -3.3473 21.4419
1.08602 -3.34662 21.4289
1.10995 -3.33954 21.3797
1.13431 -3.32803 21.3109
1.15872 -3.32774 21.2982
1.18534 -3.31914 21.2544
1.21059 -3.31871 21.245
1.23509 -3.30892 21.1872
1.25833 -3.30599 21.1579
1.28472 -3.30282 21.1407
1.31086 -3.29977 21.1233
1.33342 -3.29532 21.0847
1.36076 -3.29412 21.0813
1.38678 -3.29258 21.071
1.41108 -3.28985 21.0483
1.43857 -3.28595 21.0332
1.46573 -3.28356 21.0239
1.49063 -3.28426 21.0199
1.5149 -3.28471 21.0123
1.5391 -3.2841 20.9997
1.56404 -3.28496 20.9967
1.59059 -3.28185 20.9822
1.61767 -3.28166 20.9829
1.6454 -3.28171 20.9873
1.66956 -3.28217 20.9796
1.69551 -3.27888 20.9623
1.72253 -3.27907 20.9646
1.74847 -3.2825 20.9768
1.7743 -3.28127 20.9683
1.79933 -3.28267 20.9683
1.82701 -3.28449 20.9799
1.85541 -3.28481 20.9876
1.87946 -3.28527 20.9798
1.90718 -3.28535 20.984
1.93457 -3.28966 21.0048
1.95935 -3.29028 21.0003
1.98601 -3.29308 21.0118
2.01349 -3.29017 21.0023
2.0397 -3.29221 21.009
2.06729 -3.29396 21.0193
2.09415 -3.292 21.0116
2.121 -3.30155 21.0511
2.1506 -3.3018 21.0621
2.17725 -3.30523 21.0754
2.20649 -3.31241 21.1129
2.23614 -3.31665 21.1396
2.26583 -3.32435 21.1801
2.2983 -3.32774 21.2126
2.32837 -3.33355 21.2463
2.35932 -3.34086 21.2885
2.38771 -3.34625 21.3141
2.41451 -3.34866 21.3223
2.44174 -3.34605 21.3125
2.46894 -3.34808 21.3206
2.49477 -3.34913 21.3202
2.52229 -3.34896 21.3208
2.54886 -3.3512 21.3274
2.57196 -3.34453 21.2885
2.5998 -3.34457 21.2911
2.623 -3.34421 21.2768
2.64694 -3.34468 21.2681
2.672 -3.33848 21.2383
2.69677 -3.33727 21.2264
2.7223 -3.33689 21.2201
2.74612 -3.33736 21.2114
2.77 -3.33535 21.1939
2.79897 -3.32912 21.1775
2.82022 -3.32881 21.158
2.8414 -3.32934 21.1415
2.86512 -3.32735 21.1241
2.89391 -3.32115 21.1077
2.91853 -3.32129 21.1011
2.94365 -3.32126 21.0954
2.96874 -3.32123 21.0897
2.99331 -3.32219 21.0859
3.01991 -3.32213 21.0849
3.04719 -3.32223 21.0865
3.07284 -3.32227 21.0829
3.10135 -3.32426 21.0949
3.13299 -3.32392 21.1082
3.16027 -3.32716 21.1206
3.19095 -3.33413 21.1559
3.21934 -3.33661 21.1688
3.25244 -3.34514 21.2163
3.29624 -3.35474 21.2992
3.33267 -3.36563 21.3638
-2.94331 -3.75258 24.0752
-2.90684 -3.74856 24.0959
-2.87641 -3.74756 24.0807
-2.84674 -3.74761 24.0731
-2.81708 -3.74767 24.0655
-2.78645 -3.74711 24.0615
-2.75598 -3.74848 24.0874
-2.72352 -3.74607 24.0777
-2.69572 -3.74799 24.0755
-2.66611 -3.74804 24.0678
-2.63551 -3.74749 24.0636
-2.60547 -3.74867 24.0787
-2.57429 -3.74833 24.0851
-2.54471 -3.74839 24.0772
-2.52273 -3.76105 24.1606
-2.49307 -3.7611 24.1526
-2.46259 -3.76228 24.1704
-2.44109 -3.77388 24.2281
-2.4102 -3.77445 24.2408
-2.38355 -3.78089 24.2845
-2.35629 -3.7855 24.3091
-2.32679 -3.7876 24.3247
-2.2942 -3.78667 24.3345
-2.26365 -3.78789 24.3494
-2.2328 -3.78734 24.3446
-2.20302 -3.7874 24.3361
-2.17325 -3.78746 24.3275
-2.13945 -3.7826 24.3005
-2.10837 -3.78169 24.2945
-2.07809 -3.7829 24.3057
-2.04241 -3.77723 24.2896
-2.01111 -3.77543 24.2754
-1.97986 -3.77364 24.2613
-1.9519 -3.77557 24.2581
-1.9207 -3.77378 24.244
-1.88601 -3.76958 24.2363
-1.85143 -3.76506 24.2243
-1.82026 -3.7636 24.2145
-1.7908 -3.76369 24.2058
-1.75762 -3.75891 24.179
