0.86982 -1.32203 24.7414
0.899396 -1.3209 24.711
0.928898 -1.31977 24.6806
0.959852 -1.31883 24.6695
0.991924 -1.31915 24.6838
1.02389 -1.31876 24.6895
1.05389 -1.31927 24.6824
1.08566 -1.3201 24.6975
1.11721 -1.32128 24.7132
1.15038 -1.32259 24.7465
0.194665 -1.30348 25.1325
0.223568 -1.30367 25.0874
0.258011 -1.29722 25.037
0.314465 -1.29631 24.9152
0.344771 -1.29636 24.8987
0.375222 -1.29521 24.8681
0.404186 -1.29744 24.8626
0.436315 -1.29619 24.858
0.469574 -1.29493 24.8706
0.50021 -1.29427 24.852
0.530034 -1.29402 24.8275
0.563774 -1.28799 24.7863
0.592464 -1.28919 24.7661
0.622274 -1.29169 24.7778
0.717981 -1.30549 24.9647
0.750771 -1.30383 24.9631
0.778947 -1.29647 24.8393
0.809158 -1.29281 24.7856
0.839875 -1.29148 24.7649
0.869517 -1.29038 24.7344
0.899084 -1.28928 24.704
0.930083 -1.28835 24.6929
0.961417 -1.28882 24.7003
0.992759 -1.2893 24.7077
1.0242 -1.28877 24.7059
1.05498 -1.28988 24.713
1.08755 -1.29075 24.7369
1.12304 -1.28953 24.7716
0.158209 -1.27982 25.1779
0.191668 -1.27452 25.1234
0.222311 -1.27458 25.1067
0.251313 -1.27513 25.0698
0.313085 -1.26709 24.9261
0.345884 -1.26187 24.8727
0.376113 -1.26195 24.8563
0.404257 -1.26492 24.8484
0.437405 -1.26298 24.8505
0.470784 -1.26215 24.871
0.499909 -1.26368 24.8588
0.529004 -1.26522 24.8465
0.661228 -1.26362 24.9235
0.683531 -1.27171 24.8981
0.713402 -1.27492 24.9158
0.747677 -1.26766 24.8702
0.778179 -1.26483 24.8273
0.809876 -1.26087 24.7884
0.839584 -1.25981 24.7578
0.869217 -1.25875 24.7274
0.898873 -1.25888 24.711
0.92895 -1.25939 24.7039
0.961048 -1.25969 24.7184
0.993052 -1.25927 24.7242
1.02446 -1.25942 24.7285
1.05658 -1.2608 24.7531
1.08697 -1.26473 24.7829
0.158934 -1.2469 25.1726
0.1913 -1.2436 25.1301
0.220887 -1.24513 25.1178
0.25163 -1.24462 25.0938
0.314258 -1.23307 24.9075
0.345555 -1.23125 24.8793
0.374763 -1.23278 24.8672
0.406158 -1.23027 24.8324
0.438885 -1.22959 24.8458
0.470481 -1.23153 24.8777
0.498605 -1.23452 24.8697
0.527977 -1.23638 24.8655
0.572556 -1.22968 24.9718
0.621388 -1.23836 24.883
0.652952 -1.23945 24.8994
0.68812 -1.23504 24.8981
0.718945 -1.23327 24.8698
0.747917 -1.23484 24.8574
0.777909 -1.23309 24.8201
0.809598 -1.22919 24.7812
0.839296 -1.22816 24.7508
0.869001 -1.22831 24.7343
0.897729 -1.22989 24.722
0.930485 -1.22928 24.7348
0.961862 -1.22974 24.7423
0.993351 -1.22921 24.7406
1.02504 -1.23066 24.7613
1.05768 -1.23127 24.7839
1.08428 -1.23973 24.8162
0.160236 -1.21257 25.1535
0.189866 -1.21412 25.1412
0.220529 -1.21422 25.1245
0.252723 -1.21052 25.0745
0.316122 -1.16939 24.9751
0.314945 -1.20049 24.9023
0.344195 -1.20205 24.8902
0.375891 -1.19887 24.8487
0.408338 -1.19602 24.826
0.440368 -1.19621 24.8412
0.467416 -1.20288 24.8687
0.535786 -1.20462 24.9792
0.56599 -1.20728 24.9962
0.592065 -1.20557 24.895
0.623004 -1.20382 24.8668
0.655204 -1.20406 24.8824
0.688388 -1.20135 24.8746
0.718836 -1.20078 24.8559
0.747791 -1.20238 24.8435
0.778631 -1.2011 24.8228
0.809347 -1.1981 24.7811
0.839076 -1.19768 24.7576
0.867847 -1.19928 24.7453
0.897975 -1.19982 24.7383
0.9301 -1.20007 24.7528
0.962141 -1.19965 24.7587
0.9942 -1.19922 24.7646
1.02614 -1.20245 24.8066
1.0663 -1.20697 24.955
1.09559 -1.20891 24.9502
0.156553 -1.18459 25.147
0.19059 -1.18127 25.1358
0.221791 -1.17953 25.0978
0.252376 -1.17965 25.0812
0.310593 -1.14881 25.0576
0.383464 -1.16153 24.8866
0.412875 -1.16338 24.8826
0.466842 -1.17456 24.9037
0.499065 -1.17963 24.9885
0.530416 -1.17719 24.9534
0.561679 -1.17476 24.9183
0.592853 -1.17234 24.8834
0.622955 -1.17135 24.8527
0.654287 -1.17044 24.8417
0.685756 -1.17085 24.8495
0.717235 -1.17126 24.8573
0.74874 -1.16857 24.8275
0.778368 -1.1694 24.8156
0.808146 -1.16844 24.785
0.837912 -1.16863 24.7686
0.869974 -1.16818 24.7746
0.901496 -1.16847 24.7819
0.930892 -1.17004 24.7768
0.962427 -1.16951 24.7751
0.994265 -1.17025 24.7906
1.02893 -1.17434 24.874
1.06313 -1.17721 24.9369
0.157351 -1.15352 25.1755
0.198695 -1.14236 25.1691
0.22487 -1.14629 25.1306
0.251154 -1.15049 25.1004
0.468479 -1.14869 25.0119
0.499904 -1.14629 24.9767
0.531239 -1.1439 24.9416
0.562487 -1.14152 24.9066
0.593645 -1.13914 24.8717
0.624554 -1.13746 24.8436
0.653549 -1.13908 24.8313
0.683129 -1.14042 24.8244
0.717279 -1.13776 24.8318
0.748243 -1.13676 24.8154
0.778108 -1.13771 24.8083
0.807923 -1.13792 24.7918
0.83675 -1.13955 24.7795
0.868823 -1.1391 24.7855
0.902 -1.13795 24.7976
0.93209 -1.13845 24.789
0.964011 -1.13923 24.8062
0.995958 -1.14001 24.8232
1.02819 -1.14241 24.8601
1.0629 -1.14378 24.9147
1.09344 -1.15037 24.9728
0.445103 -1.11299 25.0873
0.500747 -1.11299 24.9648
0.532067 -1.11064 24.9298
0.563299 -1.1083 24.8949
0.594443 -1.10598 24.86
0.625498 -1.10365 24.8252
0.65349 -1.1067 24.8172
0.682438 -1.10833 24.805
0.713675 -1.10745 24.794
0.745092 -1.10785 24.8018
0.777545 -1.10689 24.807
0.807704 -1.10739 24.7986
0.837313 -1.10719 24.7747
0.867058 -1.10879 24.7743
0.901281 -1.10653 24.7875
0.931785 -1.10682 24.7819
0.962303 -1.1097 24.8052
0.995779 -1.10945 24.8302
1.02797 -1.10958 24.8427
1.06063 -1.11252 24.8903
1.09465 -1.1175 24.9737
0.38513 -1.08051 25.1313
0.411888 -1.08428 25.1045
0.436148 -1.0911 25.082
0.470202 -1.08203 24.988
0.501595 -1.07972 24.9529
0.532899 -1.07742 24.9179
0.563935 -1.0758 24.8897
0.595243 -1.07284 24.8482
0.624257 -1.07448 24.8361
0.655239 -1.07221 24.8014
0.684164 -1.07386 24.7892
0.713052 -1.07733 24.8004
0.74582 -1.07535 24.7973
0.776884 -1.07547 24.7967
0.807559 -1.07508 24.7846
0.837151 -1.07491 24.7608
0.86723 -1.07542 24.7523
0.900192 -1.07486 24.7694
0.931482 -1.0752 24.7747
0.963495 -1.07558 24.7892
0.99565 -1.07715 24.8185
1.02698 -1.07923 24.8422
1.05913 -1.08006 24.8617
1.09085 -1.08405 24.9088
1.12281 -1.09012 24.9788
0.319888 -1.05532 25.2054
0.351532 -1.0537 25.1766
0.382521 -1.05216 25.1384
0.415039 -1.04912 25.1054
0.468898 -1.05267 24.9989
0.502448 -1.04648 24.941
0.531621 -1.04813 24.9288
0.564936 -1.04198 24.8712
0.593992 -1.04364 24.859
0.624882 -1.04207 24.8309
0.656013 -1.03917 24.7897
0.684922 -1.04083 24.7775
0.712 -1.04573 24.7811
0.744928 -1.04352 24.7778
0.777362 -1.04314 24.7909
0.808136 -1.04272 24.7797
0.836944 -1.0444 24.7675
0.867103 -1.04498 24.7606
0.899235 -1.04515 24.7754
0.931295 -1.04468 24.7814
0.961431 -1.04527 24.7745
0.995038 -1.0454 24.8065
1.0248 -1.04867 24.8244
1.05704 -1.05025 24.8536
1.09313 -1.04946 24.9032
1.12726 -1.05425 24.9867
0.28653 -1.02798 25.2522
0.320845 -1.02179 25.1931
0.352499 -1.01929 25.1492
0.385288 -1.01497 25.098
0.405947 -1.02619 25.081
0.438291 -1.02162 25.022
0.46977 -1.01939 24.9869
0.50116 -1.01716 24.9518
0.532462 -1.01495 24.9168
0.563675 -1.01274 24.882
0.592743 -1.01441 24.8698
0.625839 -1.00835 24.8125
0.65479 -1.01003 24.8004
0.683711 -1.0117 24.7883
0.712603 -1.01338 24.7761
0.742822 -1.01395 24.7693
0.774913 -1.01409 24.7843
0.807926 -1.0122 24.7863
0.83674 -1.01389 24.7741
0.866518 -1.01489 24.767
0.898985 -1.01453 24.78
0.931111 -1.01416 24.7881
0.960865 -1.01517 24.781
0.992526 -1.01632 24.8
1.0237 -1.01727 24.8102
1.05907 -1.01607 24.8483
1.08982 -1.01894 24.873
1.12219 -1.02268 24.9256
1.15643 -1.0274 25.0092
0.15839 -1.01189 25.5523
0.193326 -1.00827 25.5431
0.256911 -0.995023 25.2765
0.289611 -0.99115 25.2234
0.321605 -0.988042 25.1725
0.34488 -0.995646 25.1405
0.375761 -0.993392 25.0872
0.407632 -0.990527 25.0451
0.43698 -0.992211 25.0328
0.470646 -0.986144 24.9748
0.499875 -0.987829 24.9626
0.533306 -0.981796 24.9049
0.562416 -0.983482 24.8927
0.59249 -0.98377 24.8763
0.624607 -0.979169 24.8232
0.65357 -0.980859 24.8111
0.682504 -0.982553 24.799
0.713352 -0.980415 24.7644
0.74269 -0.982457 24.7642
0.773944 -0.981829 24.7573
0.806963 -0.980863 24.7718
0.836588 -0.981674 24.7601
0.865354 -0.983385 24.7478
0.89955 -0.981999 24.7727
0.931639 -0.980129 24.7627
0.960278 -0.983508 24.7689
0.993099 -0.983997 24.7959
1.02446 -0.985309 24.8128
1.05645 -0.985998 24.83
1.08846 -0.986698 24.8472
1.12027 -0.990567 24.8955
1.15918 -0.991267 24.9942
0.126214 -0.979186 25.5398
0.157772 -0.979452 25.5319
0.193645 -0.973848 25.504
0.255379 -0.964446 25.2676
0.289383 -0.958572 25.2033
0.316916 -0.961195 25.1653
0.343531 -0.966094 25.1513
0.37692 -0.959383 25.0682
0.406311 -0.96108 25.0559
0.437876 -0.958928 25.0207
0.469352 -0.956774 24.9856
0.498593 -0.958476 24.9733
0.532038 -0.952502 24.9156
0.561161 -0.954205 24.9034
0.589972 -0.955689 24.8831
0.623377 -0.949968 24.8339
0.652353 -0.951675 24.8218
0.681299 -0.953386 24.8096
0.714105 -0.947472 24.7527
0.742934 -0.949184 24.7406
0.773096 -0.949773 24.7339
0.804959 -0.950468 24.7537
0.837167 -0.949377 24.7551
0.865926 -0.951103 24.7429
0.898683 -0.950355 24.7561
0.930068 -0.950736 24.7639
0.960177 -0.951349 24.7571
0.991368 -0.952364 24.7693
1.02352 -0.953371 24.7936
1.05474 -0.956469 24.829
1.08831 -0.956088 24.854
1.12195 -0.955715 24.8791
1.15544 -0.959871 24.9505
1.18911 -0.964054 25.0222
0.09162 -0.949408 25.5293
0.125967 -0.946567 25.5227
0.159604 -0.944158 25.5084
0.189136 -0.946423 25.4954
0.257447 -0.929467 25.2507
0.289473 -0.927325 25.215
0.318478 -0.928395 25.1778
0.344278 -0.931577 25.1145
0.37559 -0.9299 25.0789
0.406022 -0.93021 25.0624
0.438776 -0.92567 25.0085
0.46806 -0.927386 24.9963
0.497314 -0.929104 24.984
0.530772 -0.92319 24.9263
0.559908 -0.92491 24.9141
0.589013 -0.926633 24.9019
0.62215 -0.920748 24.8445
0.651138 -0.922473 24.8324
0.681071 -0.92281 24.816
0.712916 -0.918345 24.7633
0.743699 -0.918816 24.7639
0.77448 -0.919291 24.7646
0.807846 -0.916085 24.7549
0.836895 -0.917524 24.7429
0.866604 -0.918215 24.7313
0.897002 -0.920912 24.7549
0.92997 -0.920261 24.7721
0.960008 -0.92084 24.7637
0.991138 -0.921743 24.7739
1.02333 -0.921864 24.7887
1.05647 -0.921732 24.8124
1.08815 -0.923848 24.8422
1.11958 -0.925808 24.8661
1.15249 -0.928962 24.9205
1.18557 -0.931934 24.9735
1.23316 -0.944021 25.2958
0.000802692 -0.926191 25.9318
0.0584212 -0.918226 25.5218
0.0959754 -0.911322 25.5046
0.128661 -0.91073 25.5073
0.161597 -0.91077 25.5299
0.191644 -0.910946 25.4836
0.258454 -0.895935 25.2382
0.313213 -0.900971 25.1456
0.344817 -0.898671 25.1019
0.374262 -0.900399 25.0896
0.406137 -0.897692 25.0476
0.437475 -0.896246 25.0192
0.467015 -0.898183 25.0151
0.50178 -0.89328 24.9951
0.558657 -0.895597 24.9247
0.590805 -0.892498 24.8904
0.621796 -0.892117 24.8793
0.652071 -0.890605 24.8394
0.681825 -0.890839 24.8183
0.71752 -0.885375 24.8122
0.748355 -0.885847 24.8129
0.779122 -0.883846 24.7783
0.809802 -0.881845 24.7439
0.838559 -0.883597 24.7318
0.867285 -0.885351 24.7197
0.894927 -0.890081 24.7301
0.927651 -0.888591 24.7341
0.959716 -0.889324 24.7562
0.989337 -0.891572 24.7625
1.02243 -0.890948 24.781
1.05378 -0.892205 24.798
1.08589 -0.892903 24.8176
1.11953 -0.893854 24.859
1.15222 -0.896133 24.9021
1.18847 -0.898338 24.9869
1.23405 -0.906093 25.2425
1.27102 -0.90687 25.3131
0.0277241 -0.884698 25.5256
0.0607426 -0.881938 25.4821
0.0958303 -0.878094 25.4724
0.128481 -0.878066 25.4887
0.164348 -0.875158 25.5208
0.256893 -0.866042 25.2407
0.285604 -0.866827 25.1868
0.314581 -0.867973 25.1497
0.343686 -0.86933 25.1208
0.375143 -0.868206 25.0966
0.408636 -0.863751 25.0551
0.439796 -0.864191 25.056
0.474476 -0.859181 25.0306
0.506418 -0.85755 25.0118
0.535392 -0.859111 24.9914
0.566143 -0.856737 24.9401
0.596843 -0.856464 24.9241
0.62639 -0.856491 24.8931
0.655491 -0.856861 24.8606
0.689321 -0.853109 24.8478
0.718265 -0.85487 24.8357
0.74718 -0.856635 24.8236
0.779854 -0.850943 24.7666
0.808653 -0.852709 24.7545
0.837421 -0.854477 24.7424
0.86616 -0.856248 24.7303
0.89487 -0.858023 24.7181
0.926859 -0.857516 24.7244
0.958956 -0.85759 24.7393
0.989424 -0.858429 24.7404
1.02331 -0.858174 24.7749
1.05359 -0.86072 24.793
1.08533 -0.861679 24.8113
1.11854 -0.861498 24.8351
1.15209 -0.862781 24.8787
1.18495 -0.866388 24.9382
1.22543 -0.868757 25.0763
1.26952 -0.87691 25.3164
-0.0641068 -0.849972 25.6002
-0.0382569 -0.856192 25.5709
-0.000935978 -0.848459 25.5182
0.0303641 -0.848428 25.4933
0.0626487 -0.84735 25.4719
0.0947174 -0.847546 25.4782
0.128164 -0.846709 25.497
0.164978 -0.841826 25.508
0.255693 -0.836518 25.2599
0.2866 -0.833405 25.1743
0.317915 -0.833833 25.1752
0.350447 -0.830717 25.1327
0.381505 -0.829846 25.1043
0.412723 -0.830282 25.1052
0.444338 -0.828309 25.0699
0.475863 -0.826333 25.0347
0.505144 -0.8281 25.0225
0.536331 -0.826753 24.9941
0.567809 -0.824183 24.9524
0.596942 -0.825954 24.9402
0.626046 -0.827729 24.9281
0.659138 -0.82207 24.8706
0.688124 -0.823845 24.8585
0.717081 -0.825623 24.8463
0.748066 -0.823091 24.805
0.778695 -0.821772 24.7771
0.807506 -0.823554 24.7651
0.836287 -0.825339 24.7529
0.865038 -0.827127 24.7408
0.895448 -0.825826 24.713
0.925928 -0.827836 24.7301
0.959264 -0.82731 24.7553
0.989576 -0.826019 24.7275
1.022 -0.824437 24.7262
1.05264 -0.82891 24.7737
1.08526 -0.828474 24.7879
1.11701 -0.829417 24.8062
1.14738 -0.831962 24.8243
1.18479 -0.833023 24.9147
1.21999 -0.833111 24.964
-0.097586 -0.819198 25.5971
-0.0697619 -0.824005 25.5923
-0.0322127 -0.815664 25.5237
0.00100867 -0.813842 25.5078
0.0311157 -0.81561 25.4953
0.0626719 -0.815001 25.4633
0.0966598 -0.814928 25.5205
0.128852 -0.81341 25.4851
0.164627 -0.809134 25.4828
0.225109 -0.805529 25.3081
0.254254 -0.805197 25.2334
0.285241 -0.803765 25.185
0.316067 -0.804163 25.1734
0.35229 -0.796991 25.1321
0.380184 -0.800283 25.115
0.413074 -0.797644 25.0925
0.445256 -0.795066 25.0575
0.474579 -0.796847 25.0454
0.503873 -0.798631 25.0332
0.53638 -0.794384 24.9794
0.566564 -0.794791 24.963
0.595709 -0.796579 24.9509
0.626865 -0.794676 24.9159
0.657931 -0.792771 24.8812
0.686929 -0.794563 24.869
0.717709 -0.793276 24.841
0.748686 -0.790787 24.7998
0.777538 -0.792583 24.7877
0.806361 -0.794381 24.7756
0.835154 -0.796183 24.7635
0.86573 -0.794313 24.7291
0.895282 -0.793805 24.6989
0.927755 -0.793325 24.7133
0.958296 -0.79623 24.7428
0.989426 -0.794453 24.7204
1.02303 -0.791808 24.7226
1.05415 -0.794686 24.758
1.08342 -0.796778 24.7577
1.11681 -0.797935 24.8012
1.15281 -0.796646 24.8492
1.18532 -0.799978 24.9033
1.22122 -0.800283 24.9647
1.25211 -0.807232 25.0349
-0.100255 -0.789366 25.5713
-0.0643306 -0.784183 25.5417
-0.0318292 -0.783279 25.5271
0.00106049 -0.781463 25.4992
0.0326585 -0.780888 25.4673
0.0626983 -0.782672 25.4548
0.0968212 -0.780904 25.4721
0.129391 -0.780734 25.4841
0.159392 -0.782531 25.4715
0.223219 -0.775236 25.2937
0.257202 -0.769096 25.2095
0.283886 -0.774107 25.1956
0.316519 -0.77153 25.1632
0.350959 -0.767385 25.1428
0.378866 -0.770702 25.1256
0.412123 -0.766215 25.0741
0.443962 -0.765546 25.0682
0.473298 -0.767344 25.056
0.504761 -0.765463 25.0208
0.536134 -0.76358 24.9858
0.565321 -0.765382 24.9736
0.596374 -0.76411 24.9454
0.626696 -0.763019 24.908
0.656727 -0.763455 24.8917
0.685737 -0.765264 24.8796
0.717653 -0.761119 24.8265
0.74752 -0.761563 24.8103
0.776384 -0.763375 24.7982
0.805219 -0.765191 24.7861
0.835865 -0.763358 24.7516
0.866425 -0.761522 24.7173
0.895114 -0.763341 24.7052
0.927084 -0.762812 24.7116
0.95862 -0.763774 24.7309
0.988284 -0.764864 24.724
1.0212 -0.762987 24.7261
1.05475 -0.76186 24.7465
1.08336 -0.763703 24.7342
1.11614 -0.765213 24.7747
1.14946 -0.766506 24.8187
1.18236 -0.769329 24.8732
1.2157 -0.768414 24.8893
1.25546 -0.771433 25.0301
-0.103319 -0.759638 25.5298
-0.0626792 -0.750033 25.5338
-0.0311938 -0.749713 25.5002
0.00111559 -0.749105 25.4905
0.0323083 -0.749501 25.4736
0.0623541 -0.751302 25.4611
0.095694 -0.750313 25.4758
0.129057 -0.749329 25.4905
0.159064 -0.751143 25.478
0.224265 -0.741752 25.2809
0.255836 -0.739397 25.2202
0.282534 -0.744431 25.2062
0.316796 -0.738865 25.1475
0.349215 -0.737453 25.1369
0.376259 -0.740182 25.0867
0.409698 -0.736942 25.0647
0.441364 -0.737198 25.0732
0.474207 -0.734165 25.0436
0.505653 -0.73232 25.0085
0.534882 -0.734135 24.9963
0.565085 -0.734587 24.9799
0.596394 -0.731845 24.9307
0.626473 -0.732298 24.9144
0.655525 -0.734121 24.9022
0.686682 -0.731724 24.8608
0.71745 -0.730495 24.8329
0.746356 -0.732321 24.8208
0.775232 -0.734151 24.8087
0.805949 -0.732355 24.7742
0.836579 -0.730556 24.7398
0.86531 -0.732389 24.7277
0.894012 -0.734225 24.7156
0.925992 -0.733688 24.722
0.95808 -0.733692 24.7371
0.988137 -0.734369 24.7304
1.02014 -0.733847 24.7367
1.05371 -0.732696 24.7571
1.08232 -0.734556 24.7448
1.11594 -0.733416 24.7651
1.14817 -0.734653 24.7945
1.1807 -0.736214 24.8307
1.21681 -0.736472 24.8972
1.25034 -0.739383 24.9587
1.28857 -0.740846 25.0616
-0.0996352 -0.722821 25.507
-0.0641612 -0.719395 25.5241
-0.0305824 -0.717096 25.5035
0.00076304 -0.717687 25.4968
0.0308516 -0.719502 25.4844
0.0609102 -0.72132 25.4719
0.094789 -0.719972 25.4942
0.127632 -0.719311 25.5014
0.157652 -0.721143 25.4888
0.248277 -0.71586 25.2107
0.280488 -0.713408 25.1671
0.31546 -0.709231 25.158
0.346246 -0.706683 25.0814
0.37544 -0.708358 25.061
0.406111 -0.708983 25.0544
0.43842 -0.707758 25.0482
0.470013 -0.705385 25.0041
0.503073 -0.704035 25.0135
0.535571 -0.701631 24.9907
0.56604 -0.700623 24.9533
0.596167 -0.701093 24.937
0.625261 -0.702929 24.9249
0.656339 -0.701156 24.8901
0.687328 -0.69938 24.8554
0.716276 -0.701219 24.8433
0.746987 -0.700037 24.8154
0.776109 -0.700727 24.79
0.806682 -0.699543 24.7622
0.835455 -0.701389 24.7502
0.864198 -0.703239 24.7381
0.892911 -0.705091 24.726
0.92353 -0.704838 24.7151
0.955072 -0.705754 24.7345
0.98707 -0.705219 24.7408
1.0205 -0.701447 24.7256
1.05278 -0.700775 24.7342
1.0822 -0.704038 24.7513
1.11413 -0.704552 24.7687
1.14698 -0.703717 24.782
1.18048 -0.705144 24.8303
1.21409 -0.70658 24.8786
1.24675 -0.70975 24.9329
1.28334 -0.712578 25.0321
-0.0949867 -0.685544 25.5068
-0.0623505 -0.68584 25.5444
-0.0308341 -0.685823 25.52
-0.000702879 -0.687652 25.5075
0.0305098 -0.688094 25.4906
0.0605742 -0.68993 25.4781
0.0942033 -0.688557 25.4918
0.12621 -0.689275 25.5122
0.157331 -0.689734 25.4951
0.247943 -0.684203 25.2012
0.28109 -0.680569 25.1542
0.312953 -0.678778 25.1188
0.344725 -0.676984 25.0836
0.376176 -0.67578 25.0552
0.40576 -0.677044 25.0363
0.437294 -0.675265 25.0013
0.466557 -0.677105 24.9892
0.498533 -0.675656 24.9733
0.530565 -0.672383 24.925
0.564482 -0.671038 24.954
0.596328 -0.6693 24.9322
0.62566 -0.669753 24.9004
0.657156 -0.668216 24.8779
0.686145 -0.67007 24.8658
0.717061 -0.668349 24.8312
0.746923 -0.667975 24.8008
0.776734 -0.668482 24.7847
0.805548 -0.670342 24.7726
0.835283 -0.670857 24.7564
0.864904 -0.670499 24.7262
0.893601 -0.672365 24.7142
0.924411 -0.670794 24.6879
0.956277 -0.672876 24.7292
0.987641 -0.673044 24.7357
1.01843 -0.670915 24.7027
1.05153 -0.669576 24.7153
1.08261 -0.670397 24.7256
1.1115 -0.674845 24.75
1.14597 -0.674502 24.7926
1.17888 -0.673658 24.8058
1.21137 -0.676743 24.86
1.24903 -0.677277 24.9509
1.28366 -0.680925 25.0351
-0.0684497 -0.658824 25.4676
-0.0323091 -0.655753 25.5307
-0.00216499 -0.657599 25.5182
0.029259 -0.657621 25.4938
0.0630236 -0.655631 25.4925
0.0948253 -0.656086 25.4988
0.127021 -0.656142 25.5061
0.156088 -0.659258 25.4984
0.250178 -0.64907 25.1768
0.282114 -0.647317 25.1414
0.313959 -0.645561 25.1061
0.345714 -0.643823 25.0709
0.376343 -0.643443 25.04
0.406714 -0.643932 25.0237
0.438232 -0.642209 24.9887
0.467477 -0.644063 24.9767
0.498847 -0.642337 24.9418
0.528005 -0.644194 24.9298
0.559045 -0.643049 24.9017
0.589193 -0.644104 24.8972
0.62249 -0.64017 24.8672
0.655664 -0.638748 24.8802
0.684589 -0.637868 24.8197
0.716497 -0.636699 24.8135
0.746735 -0.637373 24.807
0.776553 -0.637903 24.7909
0.806289 -0.637578 24.7606
0.83517 -0.638894 24.742
0.865613 -0.637783 24.7143
0.894294 -0.639663 24.7023
0.924337 -0.640356 24.6957
0.956227 -0.640839 24.7158
0.987436 -0.641099 24.7214
1.01697 -0.64165 24.7052
1.05049 -0.640425 24.7257
1.08249 -0.63989 24.732
1.1169 -0.639492 24.7746
1.14587 -0.643922 24.799
1.17788 -0.644408 24.8165
1.21364 -0.644341 24.8779
1.25028 -0.644475 24.9514
1.28639 -0.648421 25.0599
-0.0343705 -0.624865 25.4814
-0.00362329 -0.627529 25.5289
0.0315008 -0.623719 25.5157
0.0633681 -0.623812 25.5115
0.0971341 -0.621823 25.5104
0.131192 -0.62036 25.5355
0.191447 -0.61703 25.3122
0.219216 -0.617522 25.1994
0.251224 -0.615808 25.164
0.284199 -0.612734 25.1243
0.31497 -0.612391 25.0933
0.346708 -0.610689 25.0582
0.378357 -0.609004 25.0231
0.407673 -0.610867 25.0111
0.439174 -0.609179 24.9762
0.468402 -0.611046 24.9642
0.499756 -0.609376 24.9293
0.528896 -0.611247 24.9173
0.560103 -0.609574 24.8827
0.589155 -0.611448 24.8707
0.620049 -0.610346 24.8428
0.649182 -0.611669 24.8241
0.680099 -0.610011 24.7897
0.710327 -0.610688 24.7832
0.74557 -0.606003 24.782
0.776315 -0.605067 24.7594
0.807034 -0.604839 24.7486
0.835786 -0.606729 24.7366
0.864509 -0.608622 24.7246
0.893202 -0.610519 24.7126
0.921865 -0.612419 24.7006
0.954572 -0.611505 24.7141
0.9873 -0.610594 24.7277
1.01684 -0.611168 24.7115
1.04909 -0.610394 24.719
1.08146 -0.610713 24.7425
1.11428 -0.609826 24.7559
1.14557 -0.611923 24.7849
1.1752 -0.614699 24.7978
1.21591 -0.611899 24.8956
1.24786 -0.614685 24.938
1.28246 -0.618131 25.0222
-0.00249307 -0.592821 25.4718
0.0318626 -0.590227 25.4745
0.0693449 -0.584321 25.4848
0.102979 -0.582443 25.4825
0.129131 -0.590285 25.5232
0.186165 -0.589033 25.2456
0.220284 -0.584252 25.1865
0.253872 -0.580218 25.1355
0.283899 -0.580756 25.1033
0.315986 -0.579248 25.0806
0.346941 -0.577884 25.0311
0.378046 -0.577174 25.0048
0.408637 -0.577829 24.9985
0.440121 -0.576196 24.9636
0.469331 -0.578077 24.9516
0.500668 -0.576441 24.9168
0.52979 -0.578325 24.9049
0.560798 -0.577253 24.8769
0.590017 -0.578595 24.8583
0.621062 -0.576974 24.8238
0.65001 -0.578865 24.8118
0.680759 -0.577805 24.7841
0.709772 -0.579155 24.7655
0.740529 -0.577547 24.7312
0.772508 -0.576948 24.7379
0.804541 -0.576836 24.7533
0.835623 -0.576203 24.7427
0.865121 -0.576499 24.7192
0.893805 -0.57841 24.7072
0.922461 -0.580324 24.6952
0.955245 -0.579571 24.7128
0.98788 -0.578466 24.7224
1.01663 -0.5793 24.6972
1.05055 -0.576635 24.7051
1.08207 -0.578022 24.7307
1.11261 -0.580451 24.7544
1.14611 -0.579716 24.7798
1.17968 -0.578989 24.8052
1.2132 -0.582117 24.8768
1.24911 -0.581911 24.9385
1.28371 -0.58525 25.0228
0.186992 -0.55627 25.2407
0.222427 -0.549659 25.1691
0.279559 -0.552422 25.0555
0.312349 -0.548532 24.9919
0.341667 -0.550416 24.98
0.372247 -0.551073 24.9736
0.40446 -0.54988 24.9677
0.438083 -0.545787 24.932
0.470265 -0.545133 24.939
0.500442 -0.545695 24.9228
0.53069 -0.54545 24.8924
0.560864 -0.545203 24.862
0.590882 -0.545768 24.8459
0.619871 -0.547672 24.834
0.650843 -0.546106 24.7995
0.680751 -0.545868 24.7693
0.710572 -0.546443 24.7533
0.739386 -0.548354 24.7414
0.769131 -0.548938 24.7253
0.802728 -0.54583 24.721
0.835319 -0.543508 24.7113
0.865001 -0.544641 24.7047
0.893667 -0.546565 24.6927
0.922305 -0.548493 24.6808
0.955465 -0.547406 24.7003
0.987685 -0.546602 24.708
1.0172 -0.547212 24.6919
1.04993 -0.546281 24.7054
1.08268 -0.545354 24.7189
1.11707 -0.544801 24.7616
1.14511 -0.550471 24.7902
1.17801 -0.549562 24.8037
1.21222 -0.552764 24.8874
1.25126 -0.549805 24.9599
1.28572 -0.55636 25.0823
0.189923 -0.519147 25.1708
0.220974 -0.519432 25.1596
0.248036 -0.522446 25.0968
0.279068 -0.521147 25.0438
0.311044 -0.51903 25.002
0.340374 -0.520931 24.9901
0.371945 -0.519364 24.9553
0.403427 -0.517793 24.9206
0.433911 -0.518463 24.9143
0.466428 -0.517204 24.9167
0.500568 -0.512825 24.8906
0.531594 -0.512601 24.8798
0.560652 -0.514515 24.868
0.591577 -0.513515 24.8401
0.620893 -0.514374 24.8149
0.651679 -0.513372 24.7872
0.680564 -0.515292 24.7753
0.710391 -0.515891 24.7593
0.740174 -0.515701 24.7292
0.769883 -0.515508 24.6991
0.799554 -0.51611 24.6832
0.832191 -0.515124 24.697
0.864849 -0.514143 24.7107
0.893522 -0.516083 24.6988
0.922165 -0.518027 24.6869
0.954102 -0.51744 24.6934
0.987558 -0.516102 24.7142
1.01616 -0.518059 24.7021
1.0489 -0.517111 24.7157
1.08166 -0.516167 24.7293
1.11446 -0.515231 24.7428
1.14569 -0.517754 24.7785
1.17783 -0.519907 24.8213
1.21172 -0.521602 24.8821
1.24868 -0.519561 24.9375
1.28268 -0.523341 25.0215
0.214283 -0.49416 25.1173
0.246192 -0.4926 25.0821
0.279319 -0.488937 25.0283
0.309743 -0.489512 25.0121
0.341385 -0.487983 24.9773
0.372938 -0.486451 24.9425
0.402162 -0.488368 24.9306
0.433352 -0.487375 24.9027
0.463674 -0.487704 24.8847
0.498248 -0.483878 24.8829
0.530373 -0.483216 24.89
0.561544 -0.481726 24.8554
0.592627 -0.480231 24.8209
0.621581 -0.482162 24.8091
0.650506 -0.484095 24.7973
0.681388 -0.482618 24.7629
0.711212 -0.482458 24.7328
0.740965 -0.483074 24.7169
0.769717 -0.485014 24.7051
0.79844 -0.486958 24.6932
0.830372 -0.486343 24.7
0.862379 -0.486184 24.7154
0.89244 -0.486914 24.7089
0.922028 -0.487554 24.6929
0.955533 -0.485164 24.699
0.988221 -0.483503 24.7022
1.01681 -0.485472 24.6902
1.04725 -0.487803 24.714
1.08064 -0.486963 24.7396
1.11345 -0.48601 24.7531
1.14628 -0.485061 24.7667
1.17535 -0.490864 24.8126
1.21403 -0.48723 24.876
1.24595 -0.489817 24.9186
1.28157 -0.49118 24.9971
0.215368 -0.461059 25.1042
0.24726 -0.459555 25.0691
0.279062 -0.458047 25.0341
0.310775 -0.456556 24.9992
0.3424 -0.455062 24.9644
0.371664 -0.456992 24.9526
0.403142 -0.455515 24.9179
0.434532 -0.454034 24.8833
0.46365 -0.455968 24.8715
0.495763 -0.455292 24.8786
0.530896 -0.450321 24.8652
0.562439 -0.448962 24.8428
0.591433 -0.450906 24.831
0.620399 -0.452852 24.8192
0.651351 -0.451413 24.7848
0.682217 -0.449969 24.7506
0.711038 -0.451919 24.7388
0.73983 -0.453873 24.7269
0.768594 -0.45583 24.7151
0.798283 -0.456475 24.6991
0.830828 -0.45387 24.6836
0.863519 -0.453431 24.7081
0.893252 -0.453824 24.6902
0.921882 -0.455796 24.6783
0.954469 -0.453459 24.6696
0.988888 -0.450927 24.6902
1.01746 -0.45291 24.6782
1.0517 -0.452187 24.7211
1.08121 -0.454863 24.7342
1.11245 -0.456772 24.7634
1.14529 -0.455807 24.777
1.17854 -0.456534 24.8191
1.21235 -0.457742 24.8745
1.24825 -0.457237 24.9364
1.28531 -0.460547 25.0615
0.216042 -0.42847 25.0909
0.248332 -0.426536 25.0561
0.279858 -0.425592 25.028
0.311812 -0.423628 24.9863
0.341117 -0.425571 24.9744
0.372666 -0.424132 24.9397
0.404126 -0.422689 24.9051
0.433285 -0.424636 24.8933
0.462416 -0.426586 24.8815
0.497 -0.422743 24.8794
0.530883 -0.418897 24.8591
0.561236 -0.419603 24.8529
0.590242 -0.421563 24.8411
0.621264 -0.420161 24.8067
0.652199 -0.418756 24.7724
0.681061 -0.420719 24.7606
0.709894 -0.422685 24.7488
0.739665 -0.423345 24.7328
0.769376 -0.423265 24.7028
0.799015 -0.423182 24.6729
0.832583 -0.420836 24.6827
0.86522 -0.419804 24.6965
0.893871 -0.421787 24.6847
0.922493 -0.423773 24.6728
0.955158 -0.422759 24.6866
0.987844 -0.421748 24.7003
1.01643 -0.423748 24.6884
1.04914 -0.42275 24.702
1.08188 -0.421757 24.7157
1.11079 -0.427424 24.7617
1.14429 -0.426535 24.7873
1.17718 -0.42556 24.8009
1.21067 -0.428265 24.8729
1.25165 -0.426921 25.0011
0.247016 -0.396936 25.0661
0.280122 -0.39347 25.0123
0.310521 -0.394104 24.9963
0.341899 -0.393202 24.9683
0.373672 -0.391298 24.9268
0.402872 -0.393258 24.915
0.432042 -0.395221 24.9032
0.462202 -0.395872 24.8872
0.496238 -0.391994 24.8687
0.530989 -0.388255 24.8747
0.560036 -0.390228 24.8629
0.591128 -0.388865 24.8285
0.622133 -0.387497 24.7941
0.651035 -0.389472 24.7824
0.679909 -0.391452 24.7706
0.709726 -0.392128 24.7546
0.740466 -0.39005 24.7064
0.770162 -0.390727 24.6905
0.800229 -0.391466 24.6842
0.834071 -0.389861 24.7129
0.864134 -0.39061 24.7066
0.892797 -0.392609 24.6947
0.921431 -0.394612 24.6828
0.954854 -0.393167 24.7037
0.986802 -0.392553 24.7104
1.01681 -0.393324 24.704
1.0489 -0.393142 24.7193
1.08088 -0.392543 24.7259
1.11527 -0.391732 24.7689
1.14331 -0.397246 24.7976
1.1762 -0.396254 24.8112
1.21193 -0.395592 24.8731
1.24989 -0.395675 24.9764
0.245875 -0.367354 25.0844
0.279876 -0.362591 25.0181
0.309234 -0.364564 25.0062
0.342128 -0.361177 24.9528
0.372409 -0.361835 24.9368
0.40162 -0.363811 24.925
0.430802 -0.365791 24.9132
0.465047 -0.361218 24.8803
0.499381 -0.358128 24.891
0.52978 -0.358848 24.8848
0.559841 -0.359531 24.8687
0.592018 -0.356192 24.8158
0.62096 -0.358181 24.8041
0.649874 -0.360173 24.7923
0.678759 -0.362169 24.7805
0.710564 -0.358843 24.728
0.740306 -0.359536 24.7122
0.769048 -0.361535 24.7004
0.801687 -0.360459 24.7144
0.834348 -0.359388 24.7284
0.863051 -0.3614 24.7166
0.891725 -0.363416 24.7047
0.923675 -0.362783 24.7115
0.955731 -0.362566 24.727
0.985762 -0.363341 24.7205
1.01774 -0.362725 24.7272
1.04986 -0.362525 24.7426
1.07987 -0.363314 24.7361
1.11267 -0.362294 24.7497
1.1439 -0.364609 24.7856
1.17355 -0.36677 24.7921
1.21422 -0.363017 24.8907
1.24616 -0.365399 24.9334
0.152148 -0.338619 25.2438
0.185043 -0.336854 25.2266
0.221545 -0.329298 25.1432
0.244905 -0.337762 25.111
0.27858 -0.333019 25.028
0.308997 -0.333697 25.0119
0.341897 -0.330366 24.9584
0.371148 -0.332355 24.9467
0.400371 -0.334348 24.9349
0.433062 -0.331403 24.895
0.467345 -0.328133 24.8993
0.499476 -0.327422 24.9065
0.528574 -0.329424 24.8947
0.559749 -0.328136 24.8602
0.590836 -0.326844 24.8258
0.61979 -0.328849 24.814
0.648715 -0.330858 24.8022
0.67859 -0.331571 24.7863
0.710401 -0.328301 24.7338
0.739183 -0.330313 24.7221
0.771137 -0.329646 24.729
0.803145 -0.329383 24.7447
0.833256 -0.330145 24.7384
0.86197 -0.332174 24.7265
0.890656 -0.334206 24.7147
0.923821 -0.332028 24.7185
0.956078 -0.332067 24.7425
0.984725 -0.334113 24.7306
1.01671 -0.333488 24.7373
1.04884 -0.33327 24.7527
1.07886 -0.334068 24.7462
1.11167 -0.33303 24.7599
1.1445 -0.331997 24.7737
1.17905 -0.331097 24.8168
1.20915 -0.33443 24.8467
1.24308 -0.333711 24.8796
1.2739 -0.338033 24.9314
0.154014 -0.30503 25.2487
0.18863 -0.300408 25.1899
0.22254 -0.296768 25.1451
0.277468 -0.303446 25.0462
0.309003 -0.302145 25.003
0.340628 -0.300855 24.9683
0.369891 -0.30286 24.9565
0.404016 -0.299319 24.9442
0.438653 -0.295222 24.9344
0.469122 -0.29595 24.9282
0.498261 -0.297966 24.9165
0.527371 -0.299985 24.9046
0.560931 -0.295477 24.8556
0.589657 -0.29748 24.8357
0.618622 -0.299502 24.8239
0.647559 -0.301527 24.8121
0.676164 -0.303538 24.7922
0.709269 -0.299045 24.7437
0.741245 -0.298365 24.7507
0.773264 -0.298077 24.7665
0.80341 -0.298844 24.7602
0.832166 -0.300886 24.7483
0.860892 -0.302932 24.7365
0.894159 -0.299182 24.7134
0.924911 -0.300061 24.7232
0.956859 -0.299066 24.7237
0.985332 -0.302077 24.725
1.01688 -0.302699 24.7444
1.05016 -0.301435 24.7642
1.07877 -0.30351 24.7522
1.11002 -0.303714 24.758
1.14352 -0.3027 24.7838
1.1764 -0.301657 24.7976
1.20778 -0.303426 24.8269
1.24084 -0.303162 24.8531
1.27738 -0.302035 24.9214
1.30884 -0.30228 24.927
0.125155 -0.270332 25.2543
0.15736 -0.269073 25.2188
0.189474 -0.26781 25.1835
0.223931 -0.263294 25.1249
0.252913 -0.265303 25.0881
0.278908 -0.270579 25.0495
0.308893 -0.270943 25.0014
0.339562 -0.271333 24.9864
0.371092 -0.270759 24.9727
0.405636 -0.266732 24.9593
0.438719 -0.264434 24.9499
0.467898 -0.266462 24.9382
0.497049 -0.268494 24.9264
0.526171 -0.27053 24.9145
0.55737 -0.269313 24.88
0.588481 -0.2681 24.8456
0.617457 -0.270139 24.8338
0.646406 -0.272181 24.822
0.68114 -0.267791 24.8137
0.715838 -0.263398 24.8055
0.744691 -0.265446 24.7937
0.773516 -0.267498 24.7819
0.802312 -0.269553 24.7701
0.831078 -0.271612 24.7582
0.860729 -0.272052 24.7352
0.895693 -0.26689 24.7214
0.928835 -0.264974 24.7299
0.957479 -0.267042 24.718
0.985167 -0.270404 24.7102
1.01708 -0.270325 24.7256
1.04995 -0.269718 24.7495
1.07855 -0.271806 24.7375
1.11122 -0.270927 24.7521
1.14413 -0.270137 24.7718
1.17337 -0.272261 24.7717
1.20577 -0.272509 24.7967
1.24129 -0.270221 24.8352
1.27278 -0.272444 24.8712
1.30361 -0.274648 24.8951
0.126328 -0.237214 25.2407
0.158514 -0.23599 25.2054
0.19061 -0.234782 25.1701
0.222453 -0.233579 25.1265
0.251611 -0.235625 25.098
0.282752 -0.235088 25.0576
0.314009 -0.234845 25.0397
0.343361 -0.236882 25.0279
0.375905 -0.23472 24.996
0.408268 -0.232872 24.9716
0.437487 -0.234913 24.9598
0.466678 -0.236958 24.948
0.49584 -0.239007 24.9362
0.524973 -0.241059 24.9244
0.563237 -0.232763 24.9134
0.594793 -0.232228 24.9079
0.623831 -0.234287 24.8961
0.65284 -0.236348 24.8843
0.686731 -0.231971 24.8516
0.714707 -0.234042 24.8154
0.743572 -0.236106 24.8036
0.772408 -0.238175 24.7918
0.801215 -0.240246 24.78
0.829993 -0.242322 24.7681
0.865143 -0.236132 24.7368
0.899099 -0.233626 24.7517
0.927783 -0.235706 24.7398
0.956437 -0.237791 24.728
0.985063 -0.239879 24.7161
1.01703 -0.239228 24.7229
1.04913 -0.238952 24.7384
1.07914 -0.239773 24.732
1.11113 -0.239138 24.7387
1.1433 -0.23888 24.7541
1.17328 -0.239714 24.7476
1.20783 -0.238664 24.7908
1.23748 -0.240807 24.7973
1.26893 -0.242512 24.8266
1.30591 -0.240349 24.8889
1.33796 -0.241385 24.9156
0.089933 -0.211404 25.2665
0.127505 -0.204125 25.2272
0.159256 -0.203425 25.1916
0.191599 -0.201802 25.1482
0.219604 -0.205493 25.1313
0.252239 -0.203372 25.0893
0.283341 -0.203167 25.0613
0.314476 -0.203562 25.0629
0.343852 -0.205617 25.0511
0.377768 -0.201266 24.9932
0.407027 -0.203319 24.9814
0.436258 -0.205377 24.9697
0.465461 -0.207438 24.9579
0.494634 -0.209504 24.9461
0.525097 -0.210266 24.9399
0.552896 -0.213647 24.9223
0.593618 -0.202747 24.9178
0.622668 -0.204822 24.906
0.651688 -0.206901 24.8942
0.680375 -0.208994 24.8741
0.714522 -0.204634 24.8497
0.742455 -0.206751 24.8135
0.771303 -0.208836 24.8017
0.800121 -0.210924 24.7898
0.834735 -0.206579 24.7816
0.869313 -0.202231 24.7734
0.898037 -0.204325 24.7616
0.926732 -0.206423 24.7497
0.955398 -0.208524 24.7379
0.984035 -0.210628 24.726
1.01678 -0.209505 24.7399
1.04954 -0.208385 24.7539
1.07814 -0.210503 24.7419
1.11015 -0.20986 24.7487
1.14232 -0.209583 24.7642
1.17232 -0.210426 24.7577
1.20517 -0.209337 24.7714
1.23804 -0.208252 24.7852
1.26935 -0.210119 24.8153
1.30245 -0.21123 24.8628
1.33485 -0.210991 24.8781
1.36704 -0.210393 24.8846
0.0914147 -0.178096 25.2609
0.12616 -0.174276 25.2371
0.157492 -0.173313 25.1514
0.185378 -0.177052 25.1261
0.216799 -0.176851 25.108
0.249811 -0.174498 25.0759
0.282512 -0.173156 25.0788
0.313203 -0.173901 25.0727
0.344905 -0.172794 25.0378
0.376519 -0.171681 25.003
0.40579 -0.173751 24.9913
0.435033 -0.175825 24.9795
0.464246 -0.177904 24.9677
0.497717 -0.176178 24.9897
0.529953 -0.175427 24.9971
0.558863 -0.177542 24.977
0.629077 -0.168726 24.9687
0.658159 -0.170824 24.9568
0.7205 -0.168674 24.8957
0.748142 -0.17086 24.8513
0.772155 -0.177838 24.8246
0.800997 -0.179943 24.8127
0.834636 -0.176315 24.7954
0.868242 -0.172899 24.7833
0.896978 -0.175009 24.7715
0.925684 -0.177123 24.7596
0.954361 -0.179241 24.7477
0.983009 -0.181362 24.7358
1.01701 -0.178843 24.7506
1.04946 -0.177807 24.7598
1.07715 -0.181218 24.7519
1.10716 -0.18206 24.7454
1.14033 -0.180618 24.7607
1.17225 -0.179845 24.7636
1.20422 -0.180016 24.7815
1.2371 -0.178913 24.7954
1.26919 -0.178289 24.802
1.30151 -0.179916 24.8451
1.3335 -0.180433 24.8652
1.37255 -0.177634 24.9507
0.0624302 -0.143878 25.3014
0.095095 -0.142334 25.2589
0.152832 -0.146941 25.1342
0.182386 -0.149015 25.1224
0.215793 -0.146285 25.0883
0.249623 -0.143443 25.0793
0.281231 -0.143471 25.0886
0.314278 -0.141072 25.0594
0.345962 -0.139998 25.0246
0.375273 -0.142081 25.0128
0.404556 -0.144168 25.0011
0.43381 -0.146259 24.9893
0.466664 -0.144994 25.004
0.499541 -0.143733 25.0188
0.528759 -0.145839 25.007
0.557949 -0.147948 24.995
0.59086 -0.146707 25.0097
0.776925 -0.143461 24.8738
0.805816 -0.145586 24.8619
0.838398 -0.141427 24.805
0.867174 -0.143551 24.7932
0.89592 -0.145678 24.7813
0.924638 -0.147809 24.7695
0.953326 -0.149943 24.7576
0.984679 -0.147864 24.7241
1.01753 -0.147157 24.7488
1.04926 -0.146184 24.7449
1.0778 -0.14877 24.7396
1.10701 -0.150884 24.7396
1.13995 -0.149742 24.756
1.17199 -0.148212 24.7489
1.20208 -0.149714 24.7547
1.23607 -0.147514 24.7719
1.26617 -0.150433 24.7988
1.29848 -0.15015 24.8142
1.33506 -0.146679 24.8535
1.36665 -0.148308 24.8829
1.40289 -0.147084 24.9451
0.0581518 -0.116966 25.2768
0.0959398 -0.109444 25.2198
0.122051 -0.115061 25.1641
0.151514 -0.117195 25.1439
0.183538 -0.11614 25.1089
0.216732 -0.113742 25.0797
0.248336 -0.113754 25.089
0.282632 -0.110397 25.0803
0.315358 -0.108271 25.046
0.344708 -0.110366 25.0343
0.374031 -0.112466 25.0226
0.403325 -0.114569 25.0108
0.436191 -0.11328 25.0257
0.469081 -0.111995 25.0405
0.49834 -0.114113 25.0287
0.528893 -0.114904 25.0225
0.561141 -0.114467 25.0389
0.593441 -0.113709 25.0463
0.623979 -0.114515 25.04
0.658092 -0.112539 25.0699
0.772614 -0.11687 24.8645
0.804383 -0.116186 24.8636
0.837321 -0.112047 24.8148
0.866108 -0.114187 24.803
0.894866 -0.116331 24.7911
0.923594 -0.118478 24.7793
0.95396 -0.11794 24.7517
0.98852 -0.113208 24.737
1.02127 -0.112031 24.7511
1.04987 -0.114187 24.7392
1.07845 -0.116347 24.7273
1.10743 -0.11848 24.7234
1.14057 -0.116867 24.7365
1.17256 -0.116208 24.7433
1.20107 -0.118385 24.7313
1.2339 -0.11725 24.7452
1.26527 -0.118816 24.7745
1.29817 -0.118127 24.795
1.33112 -0.117439 24.8154
1.36267 -0.119024 24.8448
1.39885 -0.117738 24.9069
1.43007 -0.11981 24.9349
0.0301962 -0.0814469 25.326
0.0637526 -0.0789519 25.2659
0.0910811 -0.0831729 25.1855
0.120594 -0.0853304 25.1654
0.152689 -0.0843148 25.1303
0.184694 -0.0832938 25.0953
0.214179 -0.0853962 25.0836
0.250346 -0.0801884 25.0909
0.282483 -0.0790892 25.071
0.314095 -0.0786072 25.0558
0.343458 -0.0807193 25.0441
0.372791 -0.0828356 25.0323
0.405066 -0.082035 25.0399
0.437268 -0.0815534 25.0565
0.467871 -0.0823429 25.0503
0.497141 -0.0844782 25.0385
0.530078 -0.0831881 25.0533
0.563039 -0.081902 25.0681
0.595455 -0.081279 25.0825
0.629357 -0.0792994 25.1059
0.738326 -0.0948155 25.0041
0.803639 -0.0866931 24.8815
0.832998 -0.08553 24.8056
0.865044 -0.084808 24.8128
0.893813 -0.0869685 24.8009
0.922553 -0.0891327 24.789
0.955155 -0.0850593 24.7406
0.990207 -0.0818555 24.7672
1.02026 -0.0827066 24.7609
1.04888 -0.0848796 24.7491
1.07746 -0.0870563 24.7371
1.10745 -0.0879198 24.7308
1.1396 -0.0875663 24.7464
1.17161 -0.0868976 24.7532
1.20013 -0.0890918 24.7412
1.23296 -0.0879381 24.7551
1.26582 -0.0867884 24.769
1.29872 -0.0856473 24.7829
1.33164 -0.0845102 24.7967
1.36333 -0.0867292 24.8386
1.39481 -0.0884736 24.8687
1.42984 -0.0872116 24.9121
0.0015182 -0.0463108 25.3154
0.0263518 -0.0541691 25.3087
0.0600637 -0.051241 25.207
0.0896268 -0.0534218 25.1868
0.121793 -0.0524453 25.1517
0.153869 -0.0514633 25.1166
0.183394 -0.0535781 25.1049
0.216149 -0.0519717 25.0917
0.249191 -0.0498999 25.0721
0.283434 -0.046804 25.0772
0.312836 -0.0489288 25.0655
0.34221 -0.0510576 25.0537
0.371555 -0.0531906 25.042
0.404442 -0.0518572 25.057
0.437353 -0.0505278 25.072
0.466663 -0.0526759 25.0601
0.499613 -0.0513611 25.075
0.532587 -0.0500502 25.0899
0.565602 -0.0487483 25.1048
0.593611 -0.0538271 25.1408
0.656907 -0.0545421 25.1684
0.835525 -0.053183 24.8425
0.863983 -0.0554138 24.8225
0.892763 -0.0575911 24.8107
0.926356 -0.0542464 24.7985
0.960507 -0.0503254 24.7889
0.990596 -0.051181 24.7826
1.01925 -0.053367 24.7708
1.04788 -0.0555568 24.7589
1.07648 -0.0577502 24.7469
1.10648 -0.058622 24.7406
1.13864 -0.0582498 24.7562
1.17066 -0.0575718 24.7631
1.19919 -0.0597829 24.7511
1.23329 -0.0572278 24.7658
1.2649 -0.0574433 24.779
1.29781 -0.0562841 24.7929
1.33074 -0.0551289 24.8068
1.36448 -0.053906 24.8327
1.39531 -0.0559276 24.8567
1.43007 -0.0558136 24.9133
1.46011 -0.0567479 24.9065
-0.0357338 -0.0210019 25.3161
-0.00613295 -0.0233839 25.2787
0.0262843 -0.0224232 25.2434
0.0597115 -0.0201962 25.2038
0.0908495 -0.0205321 25.173
0.122996 -0.0195891 25.1379
0.152561 -0.0217164 25.1262
0.183172 -0.0225772 25.1102
0.216951 -0.0196314 25.0815
0.251458 -0.0163169 25.0928
0.282167 -0.0170942 25.0869
0.31158 -0.0192356 25.0752
0.340965 -0.0213812 25.0634
0.373864 -0.0200227 25.0785
0.406787 -0.0186682 25.0936
0.436138 -0.0208291 25.0817
0.468477 -0.020021 25.0893
0.502086 -0.0181534 25.1117
0.535113 -0.0168267 25.1266
0.568165 -0.0155039 25.1415
0.593282 -0.0238415 25.1757
0.627686 -0.0211207 25.1914
0.659592 -0.0212252 25.2054
0.864925 -0.0242802 24.8454
0.895467 -0.0229843 24.7993
0.932155 -0.0174151 24.8161
0.960882 -0.0196104 24.8043
0.98958 -0.0218094 24.7924
1.01825 -0.0240122 24.7805
1.04781 -0.0249635 24.7646
1.07714 -0.0253846 24.7345
1.1088 -0.0248472 24.7373
1.13961 -0.0257145 24.748
1.17127 -0.0251836 24.7508
1.19979 -0.0274069 24.7388
1.23262 -0.0262192 24.7528
1.26547 -0.0250328 24.7668
1.29468 -0.0271787 24.7667
1.33043 -0.0231962 24.7875
1.35833 -0.0279845 24.8046
1.3913 -0.0268252 24.8184
1.42929 -0.0231777 24.8792
1.45926 -0.0272376 24.9167
-0.067145 0.010933 25.3205
-0.036 0.0102224 25.2883
0.000445829 0.0156927 25.2176
0.0301662 0.0135609 25.206
0.0613446 0.0131953 25.1751
0.0920764 0.0123286 25.1592
0.121681 0.0101889 25.1475
0.151258 0.00804491 25.1358
0.184613 0.0105158 25.0955
0.21913 0.0139258 25.1004
0.25145 0.0147841 25.1082
0.280903 0.0126303 25.0965
0.310328 0.0104722 25.0848
0.34101 0.00967718 25.0788
0.373227 0.0102318 25.0956
0.405563 0.0110622 25.1033
0.434925 0.00888452 25.0914
0.468518 0.0107867 25.1139
0.502214 0.012965 25.1273
0.530476 0.00948824 25.1179
0.595894 0.00952523 25.2127
0.899984 0.0110822 24.8481
0.931119 0.012005 24.8259
0.959857 0.00979303 24.8141
0.988566 0.00757727 24.8022
1.01725 0.00535775 24.7903
1.04757 0.00615381 24.7561
1.07781 0.00695506 24.7221
1.11057 0.00818489 24.7362
1.14336 0.00941079 24.7504
1.17189 0.007179 24.7384
1.20039 0.00494357 24.7265
1.23195 0.00476115 24.7396
1.26604 0.00735239 24.7545
1.2945 0.00510273 24.7425
1.32737 0.00629106 24.7564
1.35886 0.00444326 24.7924
1.39043 0.00258859 24.8285
1.42711 0.00669046 24.8613
1.46101 0.00549585 24.9235
-0.0930192 0.0490005 25.2858
-0.065883 0.0438412 25.2978
-0.0338236 0.0441021 25.2116
-0.00192976 0.0444102 25.1689
0.0302148 0.0450535 25.1862
0.0635338 0.0471348 25.1443
0.0933092 0.0451381 25.1453
0.122894 0.0429868 25.1337
0.152748 0.0412195 25.1151
0.187258 0.0447217 25.1067
0.219424 0.0453287 25.1237
0.250178 0.0445398 25.1178
0.279642 0.0423693 25.1061
0.309079 0.0401945 25.0944
0.341997 0.0415981 25.1096
0.37494 0.0429977 25.1248
0.404342 0.0408073 25.113
0.437325 0.042192 25.1281
0.470332 0.0435727 25.1432
0.499699 0.0413668 25.1313
0.531363 0.0399901 25.1945
0.565313 0.0416275 25.2348
0.598506 0.0429839 25.2498
0.926027 0.0379304 24.8094
0.958834 0.0392115 24.8238
0.987554 0.036979 24.8119
1.01624 0.0347427 24.8
1.04825 0.0384995 24.7436
1.07826 0.0376106 24.7374
1.1104 0.0380484 24.7531
1.14241 0.0387583 24.7601
1.17094 0.0365097 24.7482
1.19945 0.0342575 24.7363
1.23228 0.0354823 24.7503
1.26513 0.0367031 24.7644
1.2936 0.0344366 24.7523
1.32648 0.0356432 24.7663
1.35938 0.0368458 24.7803
1.39094 0.0350274 24.8163
1.42396 0.0358234 24.8368
1.45563 0.0343928 24.8663
1.49036 0.0358051 24.9044
-0.101939 0.0701317 25.2522
-0.068064 0.0724718 25.2053
-0.0333217 0.0759056 25.1537
-0.00331829 0.0741346 25.1352
0.0264563 0.0721487 25.1363
0.0597148 0.0741989 25.0946
0.091803 0.0748526 25.1118
0.124111 0.0757555 25.1199
0.153648 0.0735885 25.1083
0.185971 0.074479 25.1162
0.218146 0.0751066 25.1333
0.248909 0.0743099 25.1274
0.278385 0.0721227 25.1157
0.311315 0.0735519 25.131
0.34427 0.0749773 25.1463
0.373712 0.0727742 25.1344
0.406706 0.0741844 25.1496
0.439725 0.0755907 25.1649
0.469132 0.073372 25.1529
0.50125 0.0722851 25.2332
0.534682 0.0737752 25.2568
0.954482 0.0656482 24.8144
0.986545 0.0663956 24.8216
1.01525 0.0641425 24.8097
1.04869 0.0691952 24.7589
1.08084 0.0696583 24.7747
1.11287 0.0703825 24.7818
1.14145 0.0681209 24.7699
1.17 0.0658555 24.7579
1.19852 0.0635865 24.746
1.23136 0.0648298 24.7601
1.2651 0.0673111 24.7702
1.2927 0.0637856 24.7621
1.32559 0.0650106 24.7762
1.3585 0.0662317 24.7902
1.39145 0.0674438 24.8041
1.42443 0.0686519 24.8181
1.45627 0.0666578 24.86
1.49492 0.068576 24.9579
-0.13041 0.105184 25.2496
-0.0937426 0.110404 25.1791
-0.0640209 0.108249 25.1676
-0.0316538 0.109038 25.1326
-0.00201886 0.10688 25.1212
0.0275885 0.104717 25.1097
0.0582647 0.103799 25.0939
0.0897987 0.103865 25.1011
0.125028 0.108104 25.1129
0.154554 0.105925 25.1013
0.184783 0.104467 25.108
0.21687 0.104899 25.1428
0.247644 0.104094 25.1369
0.277132 0.10189 25.1252
0.31007 0.10334 25.1405
0.343033 0.104785 25.1559
0.373781 0.103958 25.1499
0.407768 0.106259 25.1806
0.438517 0.105422 25.1746
0.470806 0.104557 25.2636
0.504001 0.105968 25.2788
0.537221 0.107376 25.294
0.956796 0.098093 24.8431
0.985538 0.095827 24.8312
1.01909 0.0990967 24.8192
1.05464 0.104322 24.8153
1.08329 0.102051 24.8034
1.11191 0.0997768 24.7915
1.1405 0.0974984 24.7796
1.16996 0.0964552 24.7636
1.19848 0.0941706 24.7516
1.22973 0.0940439 24.7578
1.26396 0.0978493 24.7547
1.29326 0.0961015 24.7498
1.32627 0.0971477 24.7697
1.35905 0.0982036 24.7845
1.39059 0.0968634 24.814
1.42357 0.09809 24.828
1.45659 0.0993075 24.842
1.49083 0.0979961 24.9145
-0.159878 0.139115 25.2517
-0.127926 0.138708 25.1726
-0.0985257 0.135751 25.1104
-0.0662482 0.136711 25.1187
-0.0318952 0.13989 25.1049
-0.000843618 0.139377 25.0945
0.0288734 0.137399 25.0957
0.0587562 0.135582 25.0772
0.0893294 0.134594 25.0673
0.123463 0.137664 25.0776
0.154977 0.137725 25.0848
0.187541 0.138907 25.1014
0.219062 0.138839 25.1222
0.248794 0.13682 25.1232
0.279064 0.135178 25.1493
0.312306 0.13684 25.1773
0.341799 0.134607 25.1655
0.374813 0.136063 25.1808
0.409159 0.138917 25.202
0.440874 0.138357 25.2445
0.469607 0.134502 25.2733
0.503446 0.136517 25.2961
0.988656 0.128885 24.8673
1.02497 0.136049 24.8369
1.05366 0.133765 24.825
1.08232 0.131477 24.8131
1.11095 0.129186 24.8012
1.14114 0.129809 24.7671
1.16972 0.127886 24.7485
1.19822 0.125589 24.7366
1.23018 0.1263 24.7429
1.26342 0.128532 24.7481
1.29383 0.128392 24.7375
1.32584 0.129096 24.7444
1.35957 0.130908 24.7656
1.38657 0.126025 24.769
1.41925 0.125509 24.8067
1.45575 0.128779 24.852
1.49213 0.130654 24.9145
1.524 0.128936 24.9507
-0.194602 0.166684 25.2264
-0.163471 0.165518 25.1776
-0.130703 0.166452 25.1353
-0.0971568 0.168408 25.0962
-0.0675287 0.166234 25.0848
-0.0352629 0.166952 25.0501
-0.00256295 0.168504 25.0659
0.0301626 0.170052 25.0816
0.0597018 0.167862 25.0702
0.0892135 0.165668 25.0587
0.12198 0.167194 25.0743
0.154773 0.168716 25.0899
0.187067 0.169638 25.098
0.219212 0.170331 25.1152
0.249948 0.169516 25.1094
0.28095 0.16867 25.1461
0.311064 0.166693 25.1869
0.344089 0.168175 25.2023
0.37714 0.169653 25.2177
0.410234 0.171122 25.233
0.438166 0.166342 25.2698
0.473995 0.170619 25.2968
0.988413 0.158957 24.8842
1.02397 0.165523 24.8466
1.05267 0.163222 24.8347
1.08294 0.163446 24.8071
1.11166 0.161864 24.7819
1.14179 0.162094 24.7545
1.17032 0.159788 24.7426
1.19882 0.157479 24.7307
1.22874 0.156538 24.7245
1.26301 0.158696 24.7535
