1.09948 -2.72103 26.1758
1.12976 -2.72074 26.1533
1.16102 -2.71814 26.1235
1.19246 -2.71525 26.0937
1.22332 -2.71222 26.0594
0.998123 -2.69803 26.2321
1.03154 -2.69569 26.2182
1.0618 -2.68464 26.123
1.09341 -2.68289 26.101
1.12412 -2.68346 26.0877
1.15615 -2.67362 26.017
1.18733 -2.67515 26.0145
1.22269 -2.67212 26.0128
1.25295 -2.68156 26.0536
1.28637 -2.67601 26.0223
0.963444 -2.66916 26.2533
0.997281 -2.66015 26.1966
1.03018 -2.65279 26.1451
1.06133 -2.64981 26.1107
1.09403 -2.64168 26.0543
1.1249 -2.64177 26.0395
1.15564 -2.63893 26.0049
1.18657 -2.63809 25.9853
1.21745 -2.63726 25.9657
1.25026 -2.63782 25.9691
1.28639 -2.63723 25.9887
1.3206 -2.64311 26.0348
1.35011 -2.64752 26.0384
0.933369 -2.63378 26.266
0.963836 -2.63465 26.2506
0.994027 -2.61963 26.1236
1.02684 -2.61003 26.0565
1.05701 -2.61092 26.0414
1.09006 -2.60727 26.0178
1.12465 -2.60342 26.0048
1.1557 -2.60112 25.9762
1.18622 -2.60173 25.9632
1.21692 -2.60266 25.9537
1.24759 -2.60386 25.9459
1.28187 -2.60247 25.9476
1.31574 -2.60461 25.9686
1.35228 -2.60929 26.0237
1.38443 -2.61437 26.0499
0.903668 -2.59341 26.2463
0.929599 -2.59911 26.2286
0.960782 -2.58851 26.1387
0.993045 -2.5802 26.0747
1.02496 -2.57571 26.0356
1.05677 -2.57125 25.9966
1.08685 -2.57216 25.9816
1.11764 -2.57228 25.967
1.14996 -2.5678 25.9335
1.18456 -2.56515 25.9294
1.21714 -2.56495 25.9266
1.24869 -2.5652 25.9193
1.28023 -2.56497 25.909
1.31522 -2.56453 25.9221
1.34736 -2.56606 25.9273
1.38283 -2.57361 25.9931
1.41601 -2.57895 26.0283
0.864259 -2.57034 26.2721
0.894777 -2.57125 26.2568
0.927626 -2.55914 26.1673
0.961439 -2.55036 26.111
0.993507 -2.54483 26.0648
1.02541 -2.54041 26.0258
1.05721 -2.53599 25.9868
1.0882 -2.53523 25.9674
1.11888 -2.53361 25.9401
1.14885 -2.53455 25.9252
1.17955 -2.53363 25.9036
1.21394 -2.52984 25.8909
1.24705 -2.5311 25.9018
1.27889 -2.52995 25.8878
1.3102 -2.53007 25.8784
1.34385 -2.53193 25.8968
1.37694 -2.5363 25.9267
1.41309 -2.53454 25.9394
1.44832 -2.54616 26.0279
0.837834 -2.53168 26.2918
0.862529 -2.5394 26.2777
0.89634 -2.52764 26.1969
0.92991 -2.51831 26.1332
0.961033 -2.5156 26.0985
0.993333 -2.50844 26.0421
1.02756 -2.49982 25.9919
1.0572 -2.50007 25.9686
1.08702 -2.50067 25.9494
1.1184 -2.49908 25.9278
1.15084 -2.49413 25.8917
1.18073 -2.49509 25.8769
1.21132 -2.49606 25.8676
1.2449 -2.49494 25.8666
1.27847 -2.49381 25.8657
1.30902 -2.49585 25.8633
1.34222 -2.49605 25.8682
1.37774 -2.49574 25.8863
1.40829 -2.49779 25.8838
1.44377 -2.50376 25.9402
1.48155 -2.50859 26.0045
1.51163 -2.51146 26.0029
0.832204 -2.50428 26.2912
0.865635 -2.49539 26.2268
0.899669 -2.48122 26.1296
0.93212 -2.47864 26.106
0.962054 -2.47784 26.0754
0.994991 -2.47103 26.0265
1.02759 -2.4639 25.9735
1.05676 -2.46348 25.9418
1.0855 -2.46423 25.9154
1.11905 -2.46123 25.901
1.15035 -2.45968 25.8794
1.18022 -2.46067 25.8646
1.21097 -2.45997 25.8454
1.24441 -2.45975 25.8496
1.27908 -2.45913 25.8603
1.31082 -2.45663 25.8371
1.3429 -2.45971 25.8528
1.37751 -2.45999 25.8685
1.40776 -2.46169 25.8618
1.44188 -2.46362 25.8839
1.47608 -2.46789 25.9208
1.51102 -2.47522 25.9809
1.54824 -2.47835 26.0302
0.800904 -2.47233 26.3211
0.831366 -2.46946 26.2752
0.866407 -2.45722 26.1987
0.898355 -2.45112 26.1437
0.930041 -2.44436 26.0826
0.958692 -2.44431 26.0469
0.991438 -2.43956 26.0111
1.02547 -2.43259 25.9706
1.04863 -2.43855 25.9359
1.08278 -2.43207 25.9013
1.11869 -2.42803 25.8981
1.15009 -2.42818 25.8889
1.18088 -2.42751 25.8696
1.21072 -2.42852 25.8548
1.24188 -2.42702 25.8333
1.27557 -2.42451 25.8245
1.31043 -2.42321 25.8323
1.34123 -2.42494 25.8301
1.37374 -2.42676 25.8408
1.40732 -2.42748 25.852
1.43904 -2.42932 25.8568
1.47395 -2.43262 25.8932
1.50886 -2.43381 25.9158
1.54644 -2.44409 26.0124
0.573167 -2.38942 25.9516
0.593586 -2.39789 25.9081
0.623871 -2.39887 25.8936
0.656981 -2.39071 25.8308
0.688328 -2.39043 25.817
0.72187 -2.38004 25.7426
0.752528 -2.38102 25.7339
0.824515 -2.43253 26.1903
0.86209 -2.42169 26.1465
0.885677 -2.41565 26.0209
0.95643 -2.40859 26.0106
0.985547 -2.4039 25.9457
1.02162 -2.39856 25.9339
1.04864 -2.40276 25.9176
1.08347 -2.39952 25.9113
1.11943 -2.39421 25.8994
1.15007 -2.3936 25.8789
1.18038 -2.39314 25.8573
1.21083 -2.39167 25.8303
1.2406 -2.3927 25.8155
1.27502 -2.39173 25.8224
1.30854 -2.3917 25.8289
1.33976 -2.39188 25.8196
1.36998 -2.3936 25.813
1.40455 -2.39385 25.8288
1.43716 -2.39442 25.8322
1.47085 -2.39694 25.8554
1.50457 -2.39678 25.8618
1.53949 -2.40394 25.9218
1.57739 -2.41371 26.0173
0.529395 -2.37735 26.0286
0.557161 -2.37982 26.0007
0.68795 -2.35346 25.7814
0.723314 -2.34682 25.7531
0.753968 -2.34551 25.7261
0.782601 -2.34753 25.7079
0.813921 -2.34254 25.6591
0.845573 -2.34254 25.6524
0.920104 -2.36539 25.9066
0.952768 -2.35457 25.8256
0.98634 -2.35344 25.825
1.04815 -2.36935 25.912
1.08124 -2.36813 25.9062
1.11567 -2.36222 25.8778
1.1487 -2.3587 25.8559
1.17928 -2.36003 25.8488
1.2115 -2.35855 25.8352
1.24128 -2.3596 25.8205
1.27357 -2.35762 25.8045
1.30785 -2.35575 25.8047
1.33931 -2.35596 25.7975
1.36973 -2.357 25.7882
1.40287 -2.35821 25.8001
1.43758 -2.35862 25.8179
1.46878 -2.3599 25.8159
1.5009 -2.36294 25.8314
1.53984 -2.36571 25.893
1.57783 -2.37286 25.974
1.61303 -2.38001 26.0343
0.713452 -2.2829 25.9959
0.8157 -2.30995 25.6765
0.846119 -2.3078 25.6422
0.876934 -2.3053 25.6095
0.907192 -2.30831 25.6146
0.938087 -2.30331 25.5647
0.989049 -2.33766 25.9763
1.01876 -2.32572 25.8627
1.0496 -2.33161 25.8906
1.08006 -2.33197 25.8749
1.11353 -2.33127 25.8762
1.14832 -2.3263 25.8578
1.17785 -2.32693 25.8375
1.21099 -2.32426 25.8229
1.24075 -2.32533 25.8081
1.27107 -2.32394 25.7813
1.30619 -2.32217 25.7886
1.33892 -2.32292 25.7947
1.37009 -2.32314 25.7855
1.40123 -2.32335 25.7763
1.43479 -2.3251 25.7947
1.46736 -2.32567 25.7982
1.50188 -2.32647 25.8171
1.53696 -2.33048 25.8597
1.57154 -2.33491 25.9007
1.60471 -2.34202 25.9477
1.64526 -2.3471 26.0326
0.506817 -2.31555 26.1739
0.537452 -2.31658 26.1592
0.561156 -2.32207 26.1157
0.824926 -2.24901 25.8182
0.834175 -2.26452 25.7393
0.9057 -2.27357 25.5865
0.938816 -2.27166 25.5788
0.972663 -2.26886 25.5707
1.00696 -2.28646 25.7182
1.04444 -2.28187 25.7258
1.07804 -2.29184 25.8073
1.11311 -2.28956 25.8108
1.14292 -2.29063 25.7962
1.1775 -2.29406 25.836
1.21138 -2.29035 25.8199
1.24113 -2.29144 25.8053
1.27175 -2.29088 25.7861
1.30325 -2.29148 25.782
1.33715 -2.28957 25.779
1.37045 -2.28929 25.7827
1.40084 -2.29035 25.7735
1.43526 -2.29043 25.7876
1.46857 -2.29016 25.7911
1.50065 -2.29317 25.8068
1.53384 -2.29614 25.8297
1.56899 -2.29904 25.8657
1.60798 -2.30381 25.9399
1.64507 -2.31278 26.0253
1.68065 -2.31368 26.0494
-0.06083 -2.33399 26.6945
-0.0308821 -2.33945 26.7084
0.00473578 -2.33925 26.7305
0.971777 -2.236 25.5619
1.00448 -2.23786 25.5794
1.0354 -2.24083 25.59
1.07285 -2.24696 25.6772
1.10643 -2.25212 25.7243
1.14226 -2.25429 25.7668
1.17599 -2.26067 25.8217
1.21024 -2.26052 25.8336
1.24091 -2.25999 25.8145
1.27049 -2.26021 25.7924
1.30242 -2.25837 25.7748
1.33733 -2.25454 25.7668
1.36987 -2.2551 25.7704
1.39946 -2.25622 25.7557
1.4354 -2.2554 25.7755
1.46815 -2.25686 25.7863
1.49798 -2.26061 25.7905
1.53116 -2.26341 25.8126
1.5683 -2.26401 25.8488
1.60162 -2.2661 25.8667
1.63479 -2.2731 25.9136
1.67193 -2.28196 25.9989
-0.0977105 -2.29834 26.6319
-0.0661216 -2.30296 26.659
-0.0283521 -2.29824 26.6588
0.00437023 -2.29905 26.6562
0.0402279 -2.30034 26.6986
0.0726149 -2.30536 26.7376
0.102443 -2.30704 26.708
0.503294 -2.26406 26.2782
0.534055 -2.26514 26.2633
0.566724 -2.26556 26.2622
0.911822 -2.19193 25.7952
0.977174 -2.20493 25.6206
1.0056 -2.20419 25.5817
1.03691 -2.20033 25.5442
1.06739 -2.2094 25.5967
1.10072 -2.21331 25.6337
1.1365 -2.21253 25.6557
1.17233 -2.22332 25.761
1.20844 -2.22282 25.7861
1.2404 -2.22577 25.802
1.27071 -2.22449 25.7752
1.30037 -2.22562 25.7605
1.33635 -2.22392 25.7753
1.36969 -2.22369 25.7797
1.39929 -2.22483 25.765
1.43444 -2.22477 25.784
1.46693 -2.22619 25.7927
1.49648 -2.22734 25.7779
1.5325 -2.22651 25.7976
1.56558 -2.23142 25.8326
1.60013 -2.23149 25.8466
1.63691 -2.23692 25.9099
1.67434 -2.24375 25.9854
1.7106 -2.2506 26.0514
-0.165616 -2.27582 26.7646
-0.128509 -2.26369 26.662
-0.0944801 -2.25657 26.581
-0.0626956 -2.25956 26.5931
-0.0278166 -2.25946 26.6093
0.00650779 -2.25902 26.6142
0.0392639 -2.26392 26.6592
0.0717021 -2.26689 26.6772
0.106663 -2.26882 26.7144
0.138853 -2.27263 26.7371
0.536455 -2.23346 26.3048
0.572735 -2.23341 26.3356
0.598858 -2.23756 26.3011
0.697581 -2.09812 25.3862
0.973909 -2.1544 25.7327
1.03868 -2.16761 25.5588
1.06609 -2.17196 25.5505
1.10167 -2.17149 25.5745
1.13501 -2.17507 25.6094
1.16754 -2.17902 25.6396
1.20252 -2.18697 25.7177
1.23743 -2.19119 25.767
1.27101 -2.19367 25.7927
1.30069 -2.19482 25.778
1.33677 -2.19015 25.773
1.37003 -2.18889 25.7699
1.39958 -2.18907 25.7483
1.43402 -2.19062 25.773
1.46815 -2.19073 25.7855
1.49769 -2.1919 25.7708
1.52976 -2.19485 25.7864
1.56495 -2.19564 25.8105
1.6002 -2.19643 25.8346
1.6334 -2.20132 25.8695
1.66864 -2.2061 25.9176
1.7039 -2.21489 25.9898
1.73751 -2.21383 25.9887
-0.225419 -2.22971 26.7206
-0.200266 -2.23834 26.7072
-0.169458 -2.24106 26.7004
-0.130638 -2.22425 26.5629
-0.0946036 -2.22252 26.5768
-0.0618435 -2.22265 26.5679
-0.0268734 -2.2233 26.595
0.00665729 -2.22373 26.5999
0.0395694 -2.22806 26.6412
0.0746216 -2.22766 26.6551
0.106625 -2.22868 26.6461
0.139505 -2.23554 26.7121
0.169234 -2.24477 26.7629
0.538196 -2.20161 26.3386
0.571451 -2.20657 26.384
1.10302 -2.13743 25.5757
1.1319 -2.14191 25.5804
1.16356 -2.14575 25.6033
1.19995 -2.14981 25.6656
1.23522 -2.15083 25.6961
1.26861 -2.15554 25.7369
1.29909 -2.16441 25.7832
1.33532 -2.15727 25.7622
1.37037 -2.15411 25.76
1.39995 -2.15529 25.7454
1.43342 -2.15592 25.7568
1.46639 -2.15707 25.7679
1.49706 -2.15778 25.7585
1.5311 -2.15803 25.7713
1.56432 -2.15992 25.7884
1.59611 -2.16344 25.8054
1.63113 -2.16642 25.8418
1.66692 -2.16825 25.8757
1.70662 -2.17616 25.9749
1.74404 -2.18476 26.0606
-0.2366 -2.20441 26.6673
-0.197609 -2.19397 26.61
-0.163502 -2.18981 26.5642
-0.129964 -2.18641 26.5213
-0.0950631 -2.18531 26.5279
-0.0609826 -2.18581 26.5428
-0.0289231 -2.19065 26.5818
0.00607907 -2.19127 26.6089
0.0409637 -2.19096 26.6225
0.0747339 -2.19234 26.6408
0.106187 -2.19344 26.6258
0.139238 -2.19639 26.6516
0.173487 -2.20386 26.741
0.568046 -2.17335 26.3525
0.598729 -2.18233 26.4075
0.629254 -2.18284 26.3835
0.695928 -2.14385 26.3685
0.790395 -2.15135 26.067
1.09053 -2.09944 25.7034
1.16503 -2.10662 25.5679
1.19795 -2.11099 25.6052
1.22868 -2.11587 25.6275
1.267 -2.1197 25.7029
1.29995 -2.12798 25.7654
1.33599 -2.12454 25.7691
1.36932 -2.1243 25.7736
1.39891 -2.1255 25.7589
1.43224 -2.12527 25.7634
1.46504 -2.12584 25.7692
1.49693 -2.12636 25.7678
1.53026 -2.12614 25.7721
1.56392 -2.12694 25.7855
1.59677 -2.12904 25.8012
1.63203 -2.12978 25.8253
1.66526 -2.13459 25.8604
1.70048 -2.14122 25.9204
1.73781 -2.1497 26.0058
1.77542 -2.15229 26.0553
-0.269017 -2.16785 26.6499
-0.232521 -2.16467 26.6512
-0.198046 -2.15967 26.5973
-0.162195 -2.15304 26.5444
-0.129295 -2.15157 26.517
-0.0965905 -2.15172 26.5083
-0.0626277 -2.15238 26.5239
-0.0264969 -2.15265 26.5641
0.00588655 -2.15562 26.5847
0.0427475 -2.15185 26.5845
0.0761326 -2.15411 26.6088
0.10801 -2.15489 26.596
0.139864 -2.15786 26.6079
0.172256 -2.16269 26.6468
0.205277 -2.16941 26.7128
0.572143 -2.14725 26.4656
0.603351 -2.14528 26.4247
0.636105 -2.1501 26.4623
0.797271 -2.11833 26.1353
0.828642 -2.11787 26.116
0.86174 -2.11069 26.0574
0.89383 -2.10688 26.0185
0.925421 -2.1025 25.9714
0.953479 -2.10075 25.9143
1.16953 -2.0761 25.6217
1.1976 -2.07822 25.6019
1.22876 -2.08165 25.6173
1.26261 -2.08492 25.6532
1.29804 -2.08874 25.705
1.33444 -2.09186 25.7585
1.36827 -2.09447 25.7871
1.39875 -2.09407 25.7681
1.43129 -2.09462 25.7718
1.46679 -2.09035 25.7653
1.49722 -2.09163 25.758
1.52934 -2.09549 25.7806
1.56392 -2.09561 25.7965
1.59485 -2.09581 25.7856
1.62833 -2.09726 25.8016
1.66227 -2.10124 25.837
1.69473 -2.10452 25.8566
1.73407 -2.10809 25.9266
1.77236 -2.11889 26.0332
-0.269093 -2.13584 26.6753
-0.231482 -2.12776 26.6256
-0.198663 -2.12719 26.6061
-0.163976 -2.12231 26.5579
-0.131059 -2.12087 26.5305
-0.0975828 -2.11979 26.5168
-0.0614515 -2.11675 26.5167
-0.0272591 -2.11708 26.5314
0.00608022 -2.11883 26.551
0.0405908 -2.1189 26.5659
0.070845 -2.12171 26.5558
0.105118 -2.12133 26.5614
0.138508 -2.12324 26.5818
0.172892 -2.12583 26.6217
0.209738 -2.13191 26.73
0.239013 -2.13912 26.7538
0.603757 -2.11832 26.4915
0.637974 -2.11799 26.4966
0.672632 -2.11596 26.4908
0.795939 -2.08808 26.1489
0.828239 -2.08429 26.1098
0.860441 -2.08051 26.0709
0.893465 -2.07428 26.02
0.924557 -2.073 25.9934
1.0153 -2.06995 25.9002
1.19941 -2.04933 25.6455
1.22899 -2.04793 25.6119
1.26225 -2.04948 25.6307
1.29492 -2.05331 25.6609
1.33403 -2.05694 25.7408
1.36682 -2.06162 25.7762
1.39753 -2.0634 25.7742
1.43135 -2.06141 25.7703
1.46594 -2.05855 25.7665
1.49688 -2.05936 25.7598
1.52754 -2.06116 25.7577
1.56385 -2.06139 25.7877
1.59427 -2.06269 25.7802
1.62759 -2.06558 25.8047
1.66175 -2.06723 25.827
1.69709 -2.06793 25.8511
1.73236 -2.07441 25.9112
1.77177 -2.08361 26.0167
-0.301876 -2.10543 26.741
-0.233292 -2.09693 26.6392
-0.198758 -2.09296 26.5988
-0.164221 -2.09007 26.5748
-0.131201 -2.08938 26.5582
-0.0976396 -2.08451 26.4955
-0.0629824 -2.08238 26.4861
-0.027939 -2.07993 26.4787
0.00608042 -2.07987 26.4867
0.0378457 -2.08315 26.5042
0.0715871 -2.085 26.5306
0.10313 -2.08705 26.5292
0.137171 -2.08822 26.5503
0.171552 -2.09047 26.5877
0.205936 -2.09378 26.6356
0.240159 -2.10396 26.7559
0.640337 -2.08254 26.5058
0.674274 -2.08204 26.5064
0.706171 -2.07643 26.4398
0.733462 -2.06892 26.3112
0.759341 -2.07329 26.2765
0.794973 -2.05837 26.1711
0.827839 -2.05073 26.1037
0.859143 -2.05031 26.0845
0.890457 -2.04389 26.0151
0.921848 -2.04383 26.0011
0.952211 -2.0424 25.9667
0.983495 -2.0416 25.9464
1.01543 -2.04071 25.9319
1.04707 -2.03798 25.9006
1.08518 -2.02994 25.8852
1.2654 -2.01801 25.6662
1.29727 -2.01995 25.6759
1.32967 -2.02612 25.7203
1.36517 -2.02731 25.7531
1.39714 -2.03018 25.769
1.4311 -2.02878 25.7704
1.46501 -2.02794 25.7753
1.49568 -2.0287 25.766
1.52912 -2.02865 25.7726
1.56306 -2.0288 25.7842
1.59369 -2.02957 25.7748
1.6272 -2.03052 25.7882
1.66123 -2.03325 25.8169
1.69428 -2.03629 25.8398
1.72955 -2.04189 25.8948
1.76799 -2.04598 25.9618
1.80454 -2.05829 26.0659
-0.306773 -2.07646 26.7323
-0.235063 -2.06665 26.6617
-0.197578 -2.05813 26.603
-0.162517 -2.0557 26.5933
-0.126513 -2.04522 26.4887
-0.0947518 -2.04542 26.4667
-0.0618057 -2.04322 26.4317
-0.0305116 -2.04438 26.4171
0.00541465 -2.04321 26.4395
0.0375537 -2.04602 26.4576
0.0687877 -2.0494 26.4694
0.103918 -2.05069 26.5086
0.138552 -2.05188 26.5386
0.170881 -2.05472 26.5566
0.203243 -2.05941 26.5954
0.237715 -2.06858 26.7099
0.272172 -2.06821 26.7154
0.727343 -2.03883 26.2795
0.761282 -2.03075 26.2155
0.793281 -2.02749 26.176
0.827511 -2.01885 26.1127
0.85863 -2.01467 26.0588
0.889731 -2.01227 26.0213
0.922634 -2.00988 26.0018
0.954055 -2.00816 25.9745
0.984877 -2.00707 25.9476
1.01752 -2.00277 25.9117
1.04751 -2.00402 25.8971
1.07831 -2.00436 25.883
1.10903 -2.00073 25.8373
1.14245 -2.00045 25.8421
1.3017 -1.98835 25.7213
1.33054 -1.99111 25.7116
1.36136 -1.9946 25.7234
1.396 -1.99733 25.7602
1.43259 -1.99701 25.7904
1.46601 -1.99595 25.7898
1.49555 -1.99724 25.7751
1.52889 -1.997 25.7796
1.56255 -1.99775 25.7931
1.59359 -1.99811 25.784
1.62715 -1.9987 25.7954
1.66021 -1.99982 25.8064
1.69399 -2.00281 25.8346
1.72718 -2.00795 25.872
1.76557 -2.00955 25.9237
1.80575 -2.01915 26.0379
-0.302394 -2.03918 26.7575
-0.263884 -2.03337 26.7517
-0.23074 -2.03027 26.6967
-0.162935 -2.01821 26.5342
-0.129106 -2.01294 26.4672
-0.0953376 -2.01052 26.4406
-0.0612185 -2.00925 26.4355
-0.0299234 -2.01044 26.421
0.00338566 -2.01084 26.4261
0.0382002 -2.0113 26.4532
0.0695895 -2.01307 26.4475
0.104687 -2.01431 26.4867
0.136604 -2.01796 26.5102
0.170722 -2.02076 26.5523
0.205915 -2.0228 26.5981
0.24119 -2.02977 26.6997
0.27265 -2.0384 26.7681
0.584228 -1.95818 25.7099
0.728818 -2.00053 26.2508
0.7633 -1.99193 26.1872
0.794004 -1.9913 26.158
0.826591 -1.9853 26.1011
0.856134 -1.98161 26.0357
0.886362 -1.98287 26.021
0.918588 -1.97823 25.9757
0.954511 -1.97411 25.971
0.983341 -1.97372 25.931
1.01566 -1.96853 25.8846
1.04605 -1.97035 25.8786
1.07704 -1.9711 25.8695
1.10934 -1.96982 25.8563
1.1404 -1.96982 25.8424
1.17289 -1.96809 25.8278
1.2042 -1.96922 25.8252
1.23636 -1.96795 25.8119
1.26928 -1.96498 25.7926
1.2969 -1.96409 25.7447
1.36777 -1.96363 25.7895
1.39803 -1.96558 25.7849
1.43165 -1.9663 25.7986
1.46501 -1.96605 25.8032
1.49457 -1.96736 25.7885
1.52792 -1.96712 25.793
1.5616 -1.96785 25.8066
1.59266 -1.96822 25.7975
1.62602 -1.96799 25.8019
1.65974 -1.96874 25.8154
1.69494 -1.96839 25.8325
1.72824 -1.97301 25.8676
1.76337 -1.97767 25.9156
1.80087 -1.98484 25.996
1.84268 -1.99133 26.1016
-0.333992 -2.00756 26.834
-0.299056 -2.00369 26.7931
-0.26423 -1.99983 26.7524
-0.230971 -1.99851 26.7246
-0.195329 -1.98709 26.5897
-0.1634 -1.9789 26.4462
-0.128076 -1.97882 26.4766
-0.0930215 -1.97502 26.4502
-0.0613398 -1.97528 26.4283
-0.0300553 -1.97648 26.4138
0.00541207 -1.97627 26.4428
0.038853 -1.97661 26.4488
0.0690853 -1.98085 26.4579
0.10304 -1.98145 26.4735
0.138667 -1.98227 26.5143
0.171645 -1.98544 26.5459
0.205553 -1.98947 26.5991
0.241137 -1.99602 26.7013
0.272343 -2.00386 26.7584
0.492797 -1.91885 25.7096
0.520408 -1.92438 25.7108
0.551261 -1.92868 25.7358
0.584493 -1.92274 25.6863
0.614665 -1.92511 25.6848
0.649884 -1.92205 25.686
0.683311 -1.92091 25.6861
0.714651 -1.92121 25.6778
0.757567 -1.96151 26.1546
0.7934 -1.95537 26.1284
0.820437 -1.95173 26.0363
0.853131 -1.94897 26.0105
0.885006 -1.94702 25.9843
0.92193 -1.94108 25.9733
0.952036 -1.94235 25.9588
0.979105 -1.94178 25.9001
1.01045 -1.93928 25.8669
1.04642 -1.93766 25.8844
1.07773 -1.93788 25.8739
1.10995 -1.93563 25.8519
1.14072 -1.93545 25.834
1.17218 -1.9341 25.8134
1.20621 -1.93404 25.8255
1.23706 -1.93481 25.8165
1.27135 -1.93294 25.8169
1.30497 -1.93363 25.8308
1.33618 -1.934 25.8219
1.3653 -1.93477 25.7988
1.397 -1.93568 25.7982
1.43064 -1.93638 25.812
1.46402 -1.93613 25.8166
1.49445 -1.93586 25.7975
1.53021 -1.9334 25.8054
1.56238 -1.93419 25.8078
1.59301 -1.93444 25.7945
1.62774 -1.93632 25.8237
1.66042 -1.93786 25.8347
1.69383 -1.93764 25.8391
1.72719 -1.93955 25.8571
1.76258 -1.94202 25.8933
1.80355 -1.94707 25.9862
1.8399 -1.9564 26.0714
-0.338887 -1.97593 26.7827
-0.303906 -1.97708 26.8234
-0.265978 -1.97048 26.7934
-0.234275 -1.96945 26.7419
-0.163201 -1.94754 26.4818
-0.126277 -1.93808 26.4034
-0.0881316 -1.93145 26.3867
-0.0594002 -1.93897 26.4206
-0.0277777 -1.94206 26.4367
0.00655999 -1.94178 26.4482
0.0375101 -1.94498 26.4547
0.0690208 -1.9495 26.4858
0.103001 -1.95008 26.5015
0.138901 -1.9501 26.5364
0.171323 -1.95323 26.5602
0.203678 -1.9578 26.5992
0.276762 -1.96398 26.7487
0.30862 -1.97204 26.8159
0.459074 -1.89446 25.7818
0.487732 -1.88903 25.6806
0.520237 -1.88962 25.688
0.554322 -1.88532 25.6638
0.585791 -1.88327 25.6335
0.61729 -1.88389 25.6304
0.647217 -1.88515 25.6166
0.680799 -1.88519 25.6305
0.713411 -1.88682 25.6488
0.745353 -1.89121 25.6851
0.786903 -1.92507 26.0883
0.820481 -1.9159 26.0126
0.884756 -1.9135 25.9781
0.977128 -1.90876 25.8811
1.00924 -1.90926 25.8801
1.04383 -1.90593 25.8705
1.07811 -1.90228 25.856
1.10799 -1.90359 25.8415
1.14083 -1.90171 25.8286
1.17063 -1.90303 25.8141
1.2056 -1.9029 25.8342
1.23686 -1.90326 25.8253
1.27026 -1.90298 25.8301
1.3039 -1.90366 25.8441
1.33665 -1.90308 25.8409
1.37032 -1.90376 25.8548
1.40375 -1.9035 25.8595
1.4334 -1.90484 25.8447
1.46439 -1.90233 25.8135
1.49411 -1.90593 25.8161
1.52733 -1.9041 25.8082
1.56311 -1.89988 25.8041
1.5964 -1.89998 25.8103
1.63023 -1.90178 25.8322
1.66035 -1.90632 25.8438
1.69294 -1.90767 25.8526
1.72674 -1.9084 25.8661
1.76378 -1.90802 25.8962
1.79924 -1.91418 25.9566
1.83895 -1.9228 26.0626
-0.300728 -1.93801 26.7998
-0.273793 -1.94775 26.8311
-0.0298195 -1.91507 26.4956
0.00404123 -1.91061 26.4424
0.0363827 -1.91426 26.4759
0.068787 -1.91712 26.4987
0.10266 -1.91833 26.5209
0.170284 -1.92242 26.5816
0.202661 -1.92694 26.6207
0.240587 -1.9263 26.6719
0.273154 -1.92942 26.6943
0.306532 -1.93214 26.7219
0.341514 -1.93704 26.7938
0.454853 -1.85887 25.7013
0.487148 -1.85542 25.6638
0.517388 -1.85581 25.6431
0.550688 -1.85229 25.6184
0.581829 -1.8523 25.6052
0.615672 -1.85038 25.6033
0.648746 -1.84998 25.6081
0.679257 -1.85114 25.6
0.711837 -1.85274 25.6182
0.747687 -1.85535 25.68
0.778524 -1.86177 25.7232
0.816864 -1.88068 25.956
0.853731 -1.87822 25.976
0.887684 -1.87736 25.9802
0.977911 -1.87657 25.8953
1.00976 -1.87445 25.8694
1.04253 -1.87305 25.859
1.07684 -1.87147 25.8617
1.10683 -1.87359 25.8546
1.13841 -1.87096 25.8239
1.16958 -1.86992 25.8029
1.20394 -1.86977 25.8177
1.23728 -1.86944 25.8219
1.26989 -1.86941 25.8219
1.30413 -1.86973 25.8386
1.33559 -1.87308 25.8541
1.36928 -1.87375 25.8681
1.40272 -1.87349 25.8728
1.43327 -1.87326 25.8537
1.46523 -1.86724 25.8048
1.49433 -1.87326 25.8197
1.53063 -1.86973 25.8245
1.56216 -1.86993 25.8175
1.59547 -1.87003 25.8237
1.6294 -1.86991 25.8334
1.65976 -1.87318 25.8382
1.69321 -1.87499 25.8568
1.72682 -1.87692 25.877
1.76194 -1.8772 25.8972
1.80044 -1.88011 25.9593
1.83761 -1.8902 26.0571
-0.295386 -1.90197 26.8663
-0.269475 -1.91154 26.8758
0.0381891 -1.88446 26.5547
0.0696826 -1.88627 26.549
0.103928 -1.88585 26.5549
0.137793 -1.88705 26.5759
0.175175 -1.88816 26.6446
0.203393 -1.8924 26.6219
0.238735 -1.89314 26.6553
0.272684 -1.89453 26.6764
0.309381 -1.89392 26.7098
0.345226 -1.89727 26.7763
0.454459 -1.82739 25.7094
0.487914 -1.82088 25.6526
0.517947 -1.82217 25.6389
0.549885 -1.81967 25.6086
0.580178 -1.81921 25.581
0.615667 -1.81591 25.5842
0.647615 -1.81676 25.5892
0.678454 -1.81751 25.5809
0.712687 -1.81728 25.5999
0.746634 -1.8221 25.6633
0.77915 -1.82717 25.7123
0.816796 -1.84102 25.8943
0.854323 -1.84329 25.9651
0.887886 -1.84296 25.9703
0.877691 -1.85176 25.6141
0.94561 -1.84571 25.9173
0.977231 -1.84388 25.8909
1.0096 -1.83953 25.851
1.04316 -1.84015 25.8653
1.07753 -1.83826 25.866
1.10809 -1.83737 25.8392
1.13795 -1.83783 25.8178
1.16979 -1.83498 25.7882
1.20423 -1.83491 25.8048
1.2368 -1.83542 25.8089
1.27027 -1.83531 25.816
1.30419 -1.83536 25.8281
1.3352 -1.83852 25.8386
1.37166 -1.83774 25.8655
1.40308 -1.83873 25.8626
1.43321 -1.83697 25.8288
1.46646 -1.83632 25.8294
1.49495 -1.83968 25.8202
1.52846 -1.83786 25.8145
1.56439 -1.83833 25.8447
1.59897 -1.83853 25.8616
1.62995 -1.83943 25.8548
1.65944 -1.84083 25.84
1.69729 -1.83941 25.8707
1.72715 -1.84504 25.8872
1.76108 -1.84715 25.9108
1.80165 -1.84603 25.9622
1.83844 -1.85375 26.0425
1.87101 -1.86214 26.0946
0.00354258 -1.85373 26.5775
0.0366459 -1.85414 26.5771
0.0680325 -1.85544 26.5623
0.102847 -1.85498 26.5762
0.136563 -1.85617 26.5949
0.171769 -1.85589 26.6154
0.206343 -1.85529 26.6225
0.238203 -1.8534 26.5759
0.272648 -1.86308 26.7052
0.306891 -1.8628 26.7096
0.337135 -1.86994 26.7473
0.421818 -1.79774 25.7402
0.455385 -1.79128 25.6832
0.486501 -1.79102 25.6651
0.51851 -1.78855 25.6347
0.54979 -1.78591 25.5948
0.580727 -1.78566 25.5768
0.613798 -1.78529 25.5824
0.646879 -1.78583 25.5971
0.678121 -1.78618 25.589
0.71192 -1.78578 25.6018
0.743921 -1.78917 25.6313
0.778378 -1.79357 25.6957
0.808632 -1.79975 25.7307
0.850816 -1.81076 25.9332
0.88597 -1.80739 25.9278
0.915056 -1.81199 25.9324
0.945205 -1.81246 25.9109
0.97603 -1.8107 25.8771
1.01145 -1.80567 25.8607
1.04366 -1.80632 25.8624
1.07709 -1.80508 25.8598
1.10768 -1.80334 25.8261
1.13842 -1.80313 25.8073
1.16968 -1.80353 25.7985
1.20324 -1.80415 25.8127
1.23661 -1.80385 25.8177
1.27 -1.80356 25.8226
1.30362 -1.80419 25.8367
1.34122 -1.79976 25.8458
1.37223 -1.80357 25.8612
1.40343 -1.80399 25.8523
1.43308 -1.80539 25.8377
1.46741 -1.80509 25.8498
1.50118 -1.8043 25.8536
1.53134 -1.80621 25.8473
1.56495 -1.80672 25.8589
1.59925 -1.80722 25.8757
1.62903 -1.80941 25.8683
1.6624 -1.8095 25.8745
1.69641 -1.80937 25.8842
1.72782 -1.81261 25.8964
1.76099 -1.81628 25.9248
1.79981 -1.81514 25.9632
1.83497 -1.82079 26.0183
1.87223 -1.8279 26.0975
-0.12747 -1.83212 26.8162
-0.0958679 -1.83239 26.7829
-0.0333886 -1.83037 26.6709
0.00387938 -1.82349 26.6323
0.0383889 -1.82148 26.6192
0.0719587 -1.82203 26.6271
0.104674 -1.82233 26.6184
0.136061 -1.82365 26.6035
0.170949 -1.82319 26.6174
0.204536 -1.82376 26.6252
0.240207 -1.82232 26.6371
0.307208 -1.83423 26.7781
0.339961 -1.83516 26.7755
0.372629 -1.83255 26.7312
0.422623 -1.76313 25.7288
0.454242 -1.75837 25.6659
0.487076 -1.75738 25.6608
0.518437 -1.75478 25.6209
0.549428 -1.75455 25.6028
0.579363 -1.75588 25.5892
0.613717 -1.75376 25.5915
0.646603 -1.75457 25.6068
0.677791 -1.75483 25.597
0.710608 -1.75598 25.6143
0.748312 -1.75468 25.6609
0.780291 -1.75892 25.6974
0.813807 -1.76406 25.7578
0.848219 -1.77546 25.8844
0.881567 -1.77578 25.8946
0.948366 -1.76988 25.8569
0.981027 -1.76504 25.8144
1.01091 -1.76642 25.8001
1.04408 -1.76376 25.7831
1.07853 -1.76878 25.8447
1.10905 -1.76796 25.818
1.13886 -1.76935 25.8036
1.16936 -1.7706 25.7949
1.20284 -1.76953 25.7947
1.23704 -1.76919 25.8072
1.26963 -1.77004 25.8142
1.30384 -1.76894 25.8202
1.33522 -1.76993 25.8174
1.36789 -1.76815 25.8046
1.40252 -1.76816 25.8224
1.43342 -1.77071 25.8274
1.46557 -1.77432 25.8505
1.50078 -1.77475 25.8753
1.53038 -1.77618 25.8606
1.55995 -1.77761 25.8458
1.59978 -1.77608 25.8932
1.63192 -1.77707 25.8959
1.66603 -1.77714 25.9077
1.69674 -1.77803 25.8983
1.7315 -1.77851 25.9177
1.76522 -1.78368 25.9605
1.79897 -1.78499 25.9768
1.8363 -1.78671 26.0225
1.87345 -1.79365 26.1004
-0.103616 -1.80366 26.7272
-0.0628303 -1.79926 26.7831
-0.0284052 -1.79573 26.7424
0.00287037 -1.79555 26.7002
0.040253 -1.78923 26.6705
0.0716022 -1.79006 26.6466
0.10304 -1.7914 26.6318
0.135564 -1.79111 26.6121
0.169634 -1.79136 26.6233
0.202944 -1.79283 26.6386
0.239224 -1.79133 26.6586
0.273106 -1.79251 26.6772
0.306429 -1.79435 26.6954
0.341545 -1.79405 26.7119
0.377224 -1.79487 26.7483
0.455206 -1.72419 25.6601
0.487024 -1.72359 25.6469
0.51807 -1.72337 25.6288
0.548052 -1.72473 25.6152
0.579361 -1.72508 25.6072
0.61364 -1.72296 25.6085
0.646594 -1.72292 25.6158
0.677658 -1.72374 25.6101
0.710006 -1.7261 25.6342
0.747146 -1.72395 25.6665
0.78246 -1.72254 25.685
0.81758 -1.72294 25.7182
0.849193 -1.73137 25.7891
0.88404 -1.73602 25.8569
0.916288 -1.74149 25.9036
0.9481 -1.73823 25.8654
1.07362 -1.73472 25.7868
1.1059 -1.73492 25.7861
1.13844 -1.73541 25.7904
1.16911 -1.73525 25.7717
1.20244 -1.73495 25.7768
1.23597 -1.73554 25.7909
1.26867 -1.73497 25.7879
1.30225 -1.73557 25.8021
1.33561 -1.73528 25.807
1.36525 -1.73671 25.7925
1.3995 -1.73638 25.8048
1.43378 -1.73605 25.8171
1.46967 -1.74051 25.8788
1.49981 -1.74467 25.8886
1.52942 -1.74612 25.8738
1.56741 -1.7487 25.9365
1.59934 -1.74637 25.9133
1.63366 -1.74516 25.9177
1.66716 -1.7449 25.9223
1.69829 -1.74538 25.9132
1.73063 -1.7484 25.9312
1.76695 -1.75034 25.9724
1.79915 -1.75478 25.9979
1.83684 -1.75531 26.0386
1.87265 -1.76335 26.1142
-0.0990936 -1.77162 26.8374
-0.0649432 -1.7659 26.7553
-0.0304051 -1.76317 26.7285
0.00267656 -1.76437 26.7361
0.0373235 -1.75936 26.6796
0.069955 -1.75909 26.66
0.102538 -1.75882 26.6403
0.135164 -1.75885 26.6262
0.168919 -1.7607 26.6538
0.202674 -1.76083 26.6582
0.238955 -1.75893 26.6728
0.275092 -1.75509 26.6606
0.30399 -1.76126 26.6709
0.40289 -1.77583 26.8159
0.487433 -1.69352 25.6801
0.516682 -1.69351 25.6412
0.549929 -1.69214 25.6375
0.58369 -1.69005 25.6324
0.616362 -1.68941 25.6301
0.647298 -1.68851 25.6046
0.678231 -1.69182 25.623
0.71195 -1.69448 25.6661
0.74585 -1.69405 25.679
0.779769 -1.69362 25.692
0.817801 -1.69138 25.7317
0.851437 -1.68365 25.6703
0.903869 -1.69146 25.6145
0.934475 -1.69059 25.5889
0.970447 -1.68928 25.6149
0.999175 -1.69224 25.6053
1.02975 -1.6921 25.587
1.07056 -1.69893 25.7305
1.10202 -1.70213 25.7485
1.13395 -1.70265 25.7477
1.16886 -1.69998 25.7485
1.2 -1.70281 25.7593
1.2349 -1.70313 25.7844
1.2676 -1.70497 25.8009
1.30119 -1.70555 25.8151
1.33457 -1.70526 25.8201
1.36422 -1.70671 25.8056
1.39759 -1.70642 25.8105
1.43278 -1.70602 25.8302
1.46237 -1.70748 25.8156
1.49884 -1.71457 25.9019
1.53655 -1.71406 25.9403
1.56333 -1.72056 25.9383
1.5989 -1.7144 25.9172
1.63275 -1.71503 25.9311
1.66626 -1.71477 25.9358
1.69581 -1.71625 25.9208
1.73129 -1.71666 25.9455
1.76477 -1.72023 25.9759
1.80237 -1.72284 26.0312
1.83931 -1.72735 26.093
1.88018 -1.73521 26.206
-0.0320961 -1.7321 26.7418
0.00206224 -1.72796 26.6876
0.0368058 -1.72671 26.6881
0.0683116 -1.72809 26.6733
0.102945 -1.72463 26.641
0.135324 -1.72829 26.6728
0.169508 -1.72798 26.6774
0.204495 -1.72461 26.6533
0.23903 -1.72468 26.6684
0.588025 -1.65494 25.6577
0.618065 -1.65428 25.6228
0.650319 -1.6562 25.6426
0.682861 -1.65779 25.6617
0.715792 -1.65839 25.6745
0.74856 -1.66228 25.7184
0.778489 -1.66369 25.7045
0.84309 -1.65878 25.6547
0.872885 -1.66019 25.6409
0.90148 -1.66027 25.6019
0.931181 -1.66169 25.588
0.966801 -1.65675 25.5774
0.997776 -1.65835 25.5788
1.02901 -1.66274 25.6079
1.06698 -1.66737 25.7051
1.10182 -1.66413 25.7007
1.13246 -1.6668 25.7066
1.16492 -1.66728 25.711
1.19973 -1.66757 25.7361
1.23352 -1.66886 25.7593
1.26652 -1.67138 25.7847
1.30087 -1.67162 25.8033
1.33496 -1.67064 25.8096
1.3646 -1.67211 25.7951
1.39886 -1.67175 25.8074
1.43178 -1.67597 25.8434
1.46308 -1.67882 25.854
1.49787 -1.68445 25.9151
1.53168 -1.68642 25.9391
1.56762 -1.68221 25.9353
1.59769 -1.68153 25.9082
1.63317 -1.68118 25.9286
1.66551 -1.68109 25.925
1.69606 -1.68152 25.9107
1.72881 -1.68241 25.9174
1.77002 -1.68437 25.9982
1.80663 -1.69077 26.072
1.84033 -1.6951 26.1078
1.87725 -1.70049 26.1746
6.33323e-005 -1.6955 26.6735
0.0402611 -1.68526 26.6321
0.0699214 -1.69166 26.6613
0.103803 -1.69039 26.6479
0.135294 -1.69707 26.7087
0.170618 -1.69268 26.6744
0.206455 -1.68874 26.6553
0.236418 -1.69216 26.6463
0.623509 -1.62135 25.6847
0.653474 -1.62276 25.6711
0.683407 -1.62418 25.6574
0.719774 -1.62343 25.6965
0.750204 -1.62552 25.6953
0.781417 -1.62513 25.6781
0.809829 -1.62481 25.6308
0.84073 -1.62756 25.6421
0.870513 -1.62899 25.6282
0.900261 -1.63043 25.6144
0.930927 -1.63034 25.5961
0.965204 -1.6265 25.5815
1.06556 -1.63422 25.6866
1.09865 -1.63247 25.6782
1.13272 -1.63089 25.6811
1.16525 -1.63267 25.6977
1.20017 -1.63391 25.7324
1.23097 -1.63558 25.7308
1.26544 -1.63783 25.7683
1.30192 -1.6371 25.7992
1.33447 -1.63759 25.8034
1.36499 -1.63753 25.7846
1.39833 -1.63724 25.7896
1.4655 -1.65144 25.9177
1.50008 -1.65058 25.9274
1.53369 -1.65019 25.9322
1.56707 -1.64902 25.9293
1.6046 -1.65094 25.9839
1.63605 -1.64834 25.9538
1.66742 -1.64574 25.9238
1.69631 -1.64681 25.9006
1.72645 -1.64879 25.8941
1.76498 -1.64992 25.9487
1.80332 -1.65878 26.0545
1.84754 -1.66483 26.1848
1.88691 -1.67277 26.2878
0.103612 -1.66398 26.7523
0.136879 -1.65815 26.6617
0.170296 -1.65928 26.675
0.204275 -1.6573 26.6535
0.719962 -1.59186 25.7097
0.748864 -1.59202 25.6707
0.779438 -1.59433 25.6738
0.810957 -1.59237 25.6444
0.841353 -1.59318 25.631
0.87102 -1.59546 25.6241
0.900535 -1.59897 25.6276
1.00381 -1.59604 25.667
1.03117 -1.60136 25.6639
1.06649 -1.59814 25.6652
1.09931 -1.59976 25.6842
1.13252 -1.59943 25.6895
1.16364 -1.59989 25.681
1.19704 -1.60041 25.6954
1.22936 -1.60162 25.7049
1.26377 -1.60496 25.7516
1.29922 -1.60647 25.792
1.33281 -1.60701 25.8063
1.36397 -1.6075 25.7976
1.39357 -1.60901 25.7831
1.43034 -1.61622 25.8779
1.46709 -1.62105 25.9519
1.50177 -1.6165 25.9338
1.53647 -1.61731 25.9574
1.56642 -1.62178 25.9671
1.60173 -1.61929 25.9701
1.63514 -1.61813 25.9672
1.66506 -1.61668 25.9331
1.69544 -1.61667 25.9139
1.72577 -1.61666 25.8946
1.7657 -1.61391 25.9335
1.80938 -1.62778 26.1181
1.85142 -1.63394 26.2324
1.89133 -1.64033 26.3294
0.166697 -1.62469 26.6047
0.203161 -1.62634 26.6751
0.582371 -1.57788 25.8189
0.646728 -1.5718 25.7434
0.678722 -1.57229 25.7431
0.707728 -1.57599 25.7411
0.906519 -1.56722 25.7013
0.935921 -1.56828 25.679
0.967122 -1.56874 25.6707
0.999691 -1.56888 25.674
1.03528 -1.56522 25.6741
1.06502 -1.56589 25.6532
1.10031 -1.56487 25.6739
1.13298 -1.56583 25.6856
1.16261 -1.56733 25.6715
1.19625 -1.56863 25.6952
1.22919 -1.57013 25.7133
1.26405 -1.57034 25.7384
1.29673 -1.57441 25.7745
1.32869 -1.57703 25.791
1.36294 -1.57744 25.8105
1.43553 -1.58531 25.9408
1.46961 -1.58463 25.9475
1.4993 -1.58617 25.9328
1.53366 -1.59118 25.9858
1.57083 -1.58909 26.0079
1.60519 -1.58408 25.9835
1.63542 -1.58338 25.9569
1.66501 -1.58494 25.942
1.6954 -1.58495 25.9228
1.72506 -1.58272 25.8818
1.76267 -1.58158 25.9138
1.81127 -1.59916 26.1659
1.85935 -1.60089 26.2978
1.88532 -1.61163 26.3155
0.174978 -1.58946 26.7196
0.199805 -1.5963 26.6738
0.684295 -1.54051 25.8218
0.873081 -1.53747 25.7182
0.899973 -1.54252 25.706
0.935675 -1.5368 25.687
0.969366 -1.53344 25.669
1.00419 -1.53065 25.6691
1.03494 -1.53155 25.6606
1.06461 -1.53306 25.6466
1.09785 -1.53286 25.6541
1.13151 -1.53276 25.6667
1.1622 -1.53367 25.6581
1.19678 -1.53332 25.677
1.22902 -1.53862 25.7216
1.26224 -1.53971 25.7386
1.29638 -1.53928 25.7512
1.32896 -1.5464 25.8115
1.36192 -1.54736 25.8234
1.39344 -1.55591 25.8829
1.43216 -1.55467 25.9286
1.47074 -1.55127 25.9549
1.50442 -1.55823 26.018
1.53724 -1.55875 26.0221
1.57265 -1.55588 26.0228
1.60403 -1.55312 25.9894
1.63452 -1.55315 25.9701
1.66496 -1.55318 25.9509
1.69471 -1.551 25.9099
1.72543 -1.54892 25.8785
1.7624 -1.54758 25.9042
1.82068 -1.56999 26.2717
0.198236 -1.56524 26.6869
0.647813 -1.51657 25.8704
0.678987 -1.51584 25.8444
0.711092 -1.51462 25.8253
0.745369 -1.51151 25.813
0.77957 -1.50892 25.8059
0.810846 -1.5081 25.7827
0.841055 -1.50874 25.7626
0.87481 -1.50379 25.7274
0.905422 -1.50322 25.7012
0.9362 -1.50173 25.6685
0.969241 -1.50034 25.6626
1.00356 -1.49959 25.6769
1.03472 -1.50008 25.6687
1.0644 -1.50161 25.6547
1.09757 -1.50125 25.6601
1.13092 -1.50171 25.6747
1.16202 -1.50221 25.6663
1.19605 -1.50176 25.679
1.22919 -1.50283 25.6961
1.26042 -1.50909 25.7387
1.29902 -1.50737 25.7835
1.33268 -1.51206 25.8341
1.36633 -1.51588 25.876
1.40128 -1.5181 25.9158
1.43565 -1.52092 25.9545
1.47069 -1.52092 25.9756
1.50382 -1.52417 26.0048
1.53738 -1.52383 26.009
1.57224 -1.52185 26.0119
1.60396 -1.52129 25.9982
1.6349 -1.51924 25.9667
1.66429 -1.51921 25.9379
1.69508 -1.51716 25.9065
1.72618 -1.51772 25.8975
1.76209 -1.51517 25.9057
0.650413 -1.48432 25.9103
0.688955 -1.47532 25.8842
0.718765 -1.47645 25.8617
0.748523 -1.47758 25.8392
0.778581 -1.47911 25.8252
0.811823 -1.47442 25.7839
0.842713 -1.47375 25.7581
0.874463 -1.47089 25.7205
0.905159 -1.46955 25.6874
0.937333 -1.46852 25.6749
0.96986 -1.46907 25.6821
1.00239 -1.46962 25.6894
1.03357 -1.47011 25.6812
1.06326 -1.47166 25.6672
1.09659 -1.47059 25.6675
1.13128 -1.4707 25.6929
1.16092 -1.47226 25.6788
1.19496 -1.47179 25.6916
1.22902 -1.47132 25.7043
1.26312 -1.47365 25.7414
1.29797 -1.47728 25.7962
1.33107 -1.47886 25.8152
1.36449 -1.4843 25.8692
1.40357 -1.48344 25.9231
1.43574 -1.48603 25.9396
1.46722 -1.48811 25.9452
1.50266 -1.49127 25.9954
1.53783 -1.48991 26.0063
1.57351 -1.48686 26.008
1.60365 -1.48615 25.9792
1.63306 -1.48588 25.9481
1.66467 -1.48534 25.9345
1.69505 -1.48543 25.9153
1.72982 -1.48215 25.9084
0.557668 -1.46294 26.1211
0.618266 -1.4589 26.0041
0.653023 -1.45198 25.9503
0.68732 -1.44471 25.8881
0.717469 -1.44625 25.8742
0.753472 -1.4412 25.8606
0.777666 -1.44934 25.8461
0.810544 -1.44364 25.7889
0.842449 -1.44215 25.7661
0.87412 -1.438 25.7136
0.904912 -1.43803 25.6954
0.93614 -1.43853 25.6872
0.96868 -1.43907 25.6945
1.00362 -1.43705 25.7032
1.03406 -1.43656 25.677
1.06445 -1.43791 25.6687
1.0992 -1.43676 25.6834
1.13175 -1.43713 25.6888
1.16182 -1.44014 25.6925
1.1939 -1.44101 25.6972
1.22945 -1.44026 25.7226
1.26282 -1.44141 25.7423
1.29703 -1.44647 25.8038
1.33667 -1.44532 25.8633
1.36397 -1.45345 25.8812
1.40163 -1.45253 25.9215
1.4354 -1.45301 25.9359
1.46958 -1.45345 25.9532
1.5037 -1.45489 25.9779
1.53517 -1.45769 25.9886
1.56638 -1.4577 25.9747
1.59726 -1.45492 25.9363
1.63084 -1.45249 25.9253
1.66505 -1.4515 25.931
1.69437 -1.45154 25.9023
1.73113 -1.44481 25.8865
0.301699 -1.45607 26.6172
0.366535 -1.45598 26.5814
0.558304 -1.42832 26.1109
0.59433 -1.42271 26.0864
0.628331 -1.41473 26.0062
0.652639 -1.42281 25.9887
0.720176 -1.41391 25.914
0.810274 -1.412 25.7969
0.842118 -1.40922 25.7591
0.873867 -1.40644 25.7216
0.905138 -1.40695 25.7134
0.937705 -1.40748 25.7208
0.970984 -1.40628 25.7187
1.00324 -1.4042 25.6964
1.03382 -1.40362 25.6707
1.06689 -1.40355 25.6779
1.10052 -1.40322 25.6885
1.13148 -1.40418 25.6826
1.16623 -1.40424 25.7081
1.19724 -1.40968 25.7436
1.23052 -1.40932 25.749
1.26402 -1.40976 25.7635
1.29795 -1.41453 25.8201
1.33562 -1.41434 25.8691
1.36856 -1.41902 25.9125
1.40063 -1.42228 25.9344
1.43541 -1.4213 25.9461
1.46568 -1.42331 25.94
1.49921 -1.42299 25.9451
1.53403 -1.42203 25.9567
1.59522 -1.42212 25.9191
1.62924 -1.41954 25.9109
1.6632 -1.41823 25.9123
1.70172 -1.41182 25.9138
0.303234 -1.42297 26.6513
0.335854 -1.42344 26.6426
0.560205 -1.38772 26.0435
0.589992 -1.39204 26.0546
0.627608 -1.38508 26.036
0.660335 -1.38267 26.0063
0.691654 -1.38141 25.9725
0.722892 -1.38147 25.954
0.753088 -1.38306 25.9399
0.779011 -1.38027 25.8232
0.810007 -1.38035 25.8048
0.841825 -1.37696 25.7596
0.874077 -1.37531 25.7396
0.906669 -1.37583 25.7471
0.93927 -1.37636 25.7545
0.971426 -1.37473 25.7345
1.00295 -1.37202 25.6969
1.03267 -1.37362 25.683
1.06822 -1.37233 25.7057
1.1006 -1.37191 25.7016
1.13038 -1.37417 25.695
1.16443 -1.37365 25.7079
1.19616 -1.37961 25.7561
1.2303 -1.3791 25.769
1.2684 -1.37711 25.8086
1.30028 -1.38462 25.8691
1.3346 -1.38413 25.8819
1.36449 -1.39123 25.9165
1.40088 -1.39077 25.9489
1.43634 -1.38703 25.9438
1.466 -1.38791 25.9222
1.49945 -1.38755 25.9266
1.53407 -1.3872 25.9418
1.56453 -1.38864 25.9328
1.59459 -1.38825 25.9059
1.62858 -1.38767 25.9133
1.66552 -1.3815 25.903
1.69388 -1.38751 25.9119
0.335404 -1.38901 26.6241
0.371719 -1.3906 26.6929
0.584945 -1.36055 26.001
0.621738 -1.35614 26.0035
0.653176 -1.35233 25.9394
0.683402 -1.35393 25.9254
0.715451 -1.35198 25.8944
0.746697 -1.35 25.8538
0.777753 -1.35009 25.8355
0.809691 -1.34739 25.7977
0.841907 -1.34505 25.7685
0.875574 -1.34413 25.7733
0.908201 -1.34464 25.7808
0.940477 -1.34367 25.7682
0.971133 -1.3425 25.735
1.00179 -1.34198 25.7093
1.03582 -1.34143 25.7224
1.0707 -1.33874 25.7236
1.10188 -1.33929 25.7154
1.13516 -1.34036 25.7353
1.16775 -1.34144 25.7474
1.19905 -1.34699 25.7873
1.23223 -1.3479 25.8029
1.26838 -1.34738 25.8359
1.30076 -1.35333 25.8876
1.33665 -1.35282 25.9161
1.36974 -1.35989 25.9823
1.40366 -1.35903 25.9866
1.44155 -1.35205 25.9767
1.47331 -1.35156 25.9634
1.50323 -1.35252 25.9448
1.53373 -1.3542 25.938
1.5672 -1.34942 25.9061
1.60063 -1.35003 25.9181
1.63407 -1.35064 25.9301
0.36865 -1.35692 26.6422
0.403627 -1.35742 26.6731
0.535138 -1.36954 26.2851
0.618137 -1.32314 25.951
0.651861 -1.322 25.9517
0.684283 -1.31856 25.9065
0.715308 -1.31816 25.8801
0.746418 -1.31827 25.8617
0.777483 -1.31838 25.8433
0.81101 -1.31357 25.8014
0.844418 -1.31236 25.7995
0.877071 -1.31286 25.8071
0.908432 -1.3134 25.7989
0.939229 -1.31291 25.7731
0.969961 -1.31241 25.7473
1.00603 -1.30968 25.7616
1.04025 -1.30736 25.7584
1.07001 -1.309 25.7445
1.10411 -1.30845 25.7575
1.13914 -1.30858 25.7875
1.16286 -1.3167 25.7699
1.19906 -1.31655 25.8086
1.23717 -1.31446 25.8484
1.27194 -1.31427 25.8699
1.30278 -1.32197 25.9218
1.34351 -1.32565 26.0373
1.37392 -1.32769 26.0312
1.40791 -1.32683 26.0356
1.43773 -1.32853 26.0208
1.47057 -1.32697 26.008
1.53436 -1.32281 25.9568
0.365356 -1.32299 26.5827
0.3999 -1.32181 26.5834
0.61766 -1.29153 25.9596
0.650548 -1.29166 25.964
0.685187 -1.28508 25.9105
0.715024 -1.28638 25.8879
0.74515 -1.28802 25.874
0.778467 -1.28401 25.8368
0.811919 -1.28193 25.8249
0.845882 -1.28103 25.8333
0.877286 -1.28158 25.8252
0.907234 -1.28323 25.8112
0.936747 -1.28455 25.7887
0.971028 -1.28221 25.7856
1.008 -1.27735 25.7881
1.03696 -1.28113 25.786
1.07066 -1.28022 25.7907
1.10224 -1.28322 25.8106
1.13202 -1.28489 25.7964
1.16762 -1.28534 25.8349
1.20547 -1.28273 25.8678
1.24061 -1.282 25.8883
1.27647 -1.28774 25.9764
1.33786 -1.29747 26.0225
1.3746 -1.29317 26.0245
1.40783 -1.29624 26.0561
1.44237 -1.29438 26.057
1.47685 -1.29076 26.0417
1.50169 -1.29968 26.0404
0.40561 -1.28557 26.6409
0.559441 -1.23249 26.2118
0.649239 -1.26129 25.9763
0.682565 -1.25595 25.9186
0.713744 -1.2561 25.9002
0.748385 -1.25286 25.8888
0.783955 -1.24752 25.8656
0.81605 -1.24803 25.8654
0.846079 -1.2497 25.8514
0.876075 -1.25136 25.8375
0.907474 -1.25193 25.8293
0.942176 -1.25026 25.838
0.97729 -1.24574 25.8208
1.01156 -1.24385 25.8218
1.04057 -1.24901 25.8341
1.06889 -1.25394 25.8356
1.10604 -1.25192 25.8683
1.1503 -1.24153 25.8929
1.19313 -1.23196 25.9101
1.24554 -1.2143 25.951
1.24005 -1.25205 25.9095
1.27923 -1.2546 26.0038
1.30911 -1.26152 26.0378
1.34436 -1.25628 26.0152
1.37575 -1.25689 26.0065
1.41027 -1.26009 26.053
1.44392 -1.2548 26.0145
1.47525 -1.2566 26.0159
1.51106 -1.26012 26.0762
1.54093 -1.26262 26.0685
0.52705 -1.28654 26.3794
0.659005 -1.21685 25.9697
0.686247 -1.22179 25.954
0.715133 -1.22221 25.9056
0.754624 -1.2144 25.9055
0.784735 -1.21608 25.8916
0.814813 -1.21776 25.8776
0.844857 -1.21944 25.8637
0.876298 -1.22001 25.8556
0.909789 -1.2203 25.8707
0.942796 -1.21956 25.868
1.04981 -1.21541 25.9355
1.07869 -1.21907 25.9291
1.14138 -1.18739 25.9465
1.17651 -1.18207 25.9202
1.20359 -1.17693 25.8054
1.21807 -1.19815 25.463
1.242 -1.19649 25.3587
1.26995 -1.20245 25.3721
1.30486 -1.19985 25.3791
1.33578 -1.20039 25.3731
1.36711 -1.19845 25.349
1.39602 -1.20299 25.3589
1.42998 -1.20127 25.3638
1.46221 -1.20243 25.3768
0.712185 -1.19638 25.9504
0.784546 -1.18667 25.9297
0.814666 -1.18837 25.9157
0.850389 -1.18609 25.9301
0.882353 -1.18647 25.9256
0.912405 -1.18818 25.9115
0.943227 -1.1905 25.9146
1.20099 -1.18161 26.1602
1.20972 -1.16886 25.3988
1.24048 -1.16648 25.3623
1.27115 -1.16483 25.3327
1.30104 -1.16628 25.3247
1.33163 -1.1664 25.3121
1.36517 -1.16334 25.3012
1.39711 -1.16377 25.3059
1.42744 -1.1662 25.312
1.46266 -1.16456 25.3308
1.49553 -1.16832 25.3731
1.5274 -1.17058 25.3917
0.726956 -1.1564 26.074
0.785423 -1.15807 25.9938
0.815614 -1.15979 25.9797
0.845771 -1.16152 25.9656
0.905983 -1.16498 25.9373
1.09414 -1.12552 25.8141
1.11891 -1.16563 26.148
1.1558 -1.16124 26.149
1.18815 -1.1644 26.1748
1.17953 -1.13244 25.3764
1.20648 -1.1374 25.3688
1.24097 -1.132 25.3444
1.27073 -1.13183 25.3191
1.30073 -1.13211 25.3014
1.33069 -1.1324 25.2838
1.36338 -1.13255 25.294
1.39651 -1.13 25.2838
1.4274 -1.13036 25.2773
1.4572 -1.13253 25.276
1.49099 -1.13204 25.2911
1.5256 -1.13624 25.3549
1.55828 -1.14021 25.3963
0.568285 -1.1373 26.3621
0.601523 -1.12894 26.2449
0.625445 -1.13672 26.2093
0.916754 -1.13235 26.0831
0.944338 -1.1377 26.0755
0.97915 -1.13631 26.0855
1.01664 -1.13332 26.1116
1.04951 -1.13423 26.1216
1.08328 -1.13467 26.137
1.12017 -1.13012 26.1367
1.18086 -1.10013 25.3895
1.20906 -1.10098 25.355
1.24245 -1.09628 25.3247
1.27135 -1.09748 25.3033
1.30119 -1.09843 25.2904
1.33024 -1.09949 25.2702
1.35982 -1.09936 25.245
1.39336 -1.09753 25.2464
1.42629 -1.09782 25.2608
1.45676 -1.09847 25.2529
1.48869 -1.09964 25.2647
1.52183 -1.10089 25.2888
1.55999 -1.10706 25.4047
1.59419 -1.10666 25.4228
0.493162 -1.11627 26.3959
0.528657 -1.11564 26.4252
0.565024 -1.10709 26.3525
0.594125 -1.10483 26.2537
0.627765 -1.10327 26.2412
0.660407 -1.10087 26.2024
0.691681 -1.10329 26.2086
0.727435 -1.09778 26.1776
0.756518 -1.10037 26.1539
0.790093 -1.09789 26.1319
0.820433 -1.09966 26.1176
0.850739 -1.10143 26.1033
0.882634 -1.10177 26.0941
0.91823 -1.10007 26.1113
0.950097 -1.10042 26.102
0.98242 -1.09906 26.0794
1.01776 -1.0967 26.0851
1.0518 -1.09538 26.0857
1.08715 -1.09266 26.0871
1.09546 -1.08131 25.6626
1.12393 -1.07811 25.5819
1.17743 -1.07291 25.3999
1.20466 -1.06868 25.3018
1.23433 -1.07004 25.2904
1.26737 -1.06621 25.2659
1.30016 -1.06589 25.2736
1.33139 -1.06336 25.2427
1.36115 -1.06501 25.2365
1.39008 -1.0661 25.2165
1.42072 -1.06716 25.2145
1.45632 -1.06447 25.2298
1.48611 -1.06733 25.2353
1.51829 -1.06934 25.2572
1.55547 -1.07103 25.3255
1.59057 -1.0779 25.4167
0.497442 -1.07943 26.4168
0.530617 -1.06973 26.268
0.563449 -1.06738 26.2291
0.594045 -1.06915 26.2149
0.624778 -1.07022 26.1934
0.656884 -1.07124 26.194
0.688973 -1.07142 26.1829
0.721117 -1.06977 26.1482
0.756039 -1.06564 26.124
0.788911 -1.06466 26.1114
0.821243 -1.06425 26.0984
0.852471 -1.064 26.0721
0.883532 -1.06443 26.053
0.915003 -1.06633 26.0576
0.950897 -1.06308 26.061
0.982613 -1.06414 26.0589
1.01609 -1.06191 26.0421
1.05061 -1.05709 26.0101
1.08378 -1.06075 26.0563
1.09329 -1.04632 25.6075
1.12532 -1.04142 25.5519
1.17371 -1.03751 25.3212
1.20355 -1.03608 25.2824
1.23446 -1.03499 25.2607
1.26413 -1.03491 25.2356
1.29565 -1.03519 25.2354
1.32885 -1.0318 25.2181
1.36069 -1.0322 25.2229
1.39051 -1.03256 25.2054
1.41942 -1.03434 25.1921
1.45202 -1.03395 25.1977
1.48446 -1.03521 25.2165
1.51896 -1.03502 25.2428
1.55307 -1.03764 25.2896
1.5926 -1.04208 25.405
1.62567 -1.04166 25.4121
0.470102 -1.03768 26.3892
0.494362 -1.04488 26.3411
0.531461 -1.03485 26.2556
0.564276 -1.03254 26.2168
0.592204 -1.03203 26.1234
0.621643 -1.03797 26.1528
0.657825 -1.03452 26.157
0.688431 -1.03562 26.1356
0.719849 -1.03481 26.1015
0.753213 -1.03293 26.0842
0.785111 -1.03326 26.0747
0.81933 -1.03048 26.0593
0.852084 -1.02953 26.0468
0.88332 -1.03061 26.0383
0.913492 -1.03242 26.0242
0.948056 -1.03048 26.0257
0.983443 -1.02623 26.0108
1.01641 -1.02299 25.9761
1.08875 -1.0161 25.5738
1.11772 -1.01516 25.5234
1.14644 -1.00212 25.341
1.17335 -1.00461 25.3073
1.20432 -1.00354 25.2855
1.23406 -1.00283 25.2537
1.26373 -1.00212 25.2219
1.29274 -1.00391 25.2086
1.3271 -1.00182 25.2174
1.36008 -1.00092 25.2222
1.39042 -1.00154 25.2129
1.41987 -1.00152 25.1878
1.44998 -1.00323 25.1868
1.48492 -1.00098 25.1997
1.51818 -1.00309 25.2349
1.55057 -1.00578 25.2653
1.58298 -1.00909 25.3007
1.62019 -1.0129 25.3872
0.459242 -1.01644 26.3823
0.493913 -1.00575 26.2369
0.526625 -1.00181 26.1691
0.557363 -1.00292 26.1477
0.588977 -1.00214 26.1137
0.62418 -1.00165 26.1461
0.657748 -1.00058 26.142
0.691088 -0.997562 26.1062
0.721459 -0.999373 26.0921
0.752068 -0.999822 26.0636
0.783186 -0.999746 26.0369
