0.956912 -2.55704 25.1794
0.99374 -2.56104 25.2446
0.32265 -2.5089 25.0636
0.354165 -2.50262 25.0087
0.384775 -2.49524 24.9372
0.417373 -2.48842 24.8904
0.447781 -2.48807 24.878
0.479699 -2.48608 24.8662
0.512185 -2.48058 24.8314
0.54185 -2.48172 24.8254
0.571114 -2.48159 24.8061
0.600611 -2.48349 24.805
0.634154 -2.48113 24.8055
0.665372 -2.48121 24.805
0.695331 -2.48415 24.8156
0.72991 -2.48303 24.8337
0.759677 -2.48638 24.8453
0.79219 -2.48893 24.8729
0.823342 -2.49395 24.9069
0.856926 -2.49489 24.9303
0.889372 -2.502 24.9879
0.92195 -2.50913 25.0457
0.958517 -2.51301 25.1104
0.992349 -2.52451 25.2054
1.02538 -2.53082 25.2572
0.288942 -2.50144 25.2608
0.324852 -2.46837 25.011
0.352141 -2.46604 24.95
0.383372 -2.4608 24.9026
0.41448 -2.45557 24.8554
0.445641 -2.4524 24.8267
0.476299 -2.45216 24.8182
0.509709 -2.44808 24.8035
0.540762 -2.44896 24.808
0.572752 -2.4462 24.7918
0.601787 -2.44711 24.779
0.631744 -2.4476 24.7712
0.663343 -2.44874 24.7825
0.696407 -2.44776 24.7897
0.727797 -2.44825 24.7939
0.758776 -2.4532 24.8279
0.788785 -2.45614 24.8384
0.823438 -2.45501 24.8565
0.85343 -2.46202 24.8958
0.887019 -2.46294 24.9191
0.919509 -2.46998 24.9767
0.952116 -2.47541 25.0229
0.987403 -2.48236 25.0992
1.02153 -2.49093 25.1764
1.05616 -2.50056 25.263
0.322413 -2.43505 24.9757
0.352654 -2.42965 24.916
0.385764 -2.42186 24.8644
0.415207 -2.42176 24.8451
0.445546 -2.41924 24.8142
0.476692 -2.41691 24.793
0.507286 -2.41539 24.7739
0.538487 -2.41547 24.7736
0.570166 -2.41252 24.7533
0.601008 -2.41403 24.7615
0.630596 -2.41494 24.7539
0.660394 -2.41346 24.7297
0.694598 -2.41269 24.7489
0.725117 -2.4156 24.7647
0.75532 -2.4174 24.7691
0.788955 -2.41737 24.7881
0.82172 -2.42126 24.8285
0.852846 -2.42619 24.8624
0.884345 -2.42792 24.8755
0.916088 -2.43622 24.9373
0.951371 -2.43697 24.972
0.984623 -2.44254 25.0242
1.01866 -2.44997 25.0942
1.05228 -2.45806 25.1642
1.08674 -2.46722 25.2464
0.291502 -2.41045 25.0485
0.321604 -2.40099 24.9489
0.354828 -2.39159 24.8826
0.386728 -2.38704 24.8474
0.417394 -2.38462 24.8198
0.446903 -2.3829 24.7878
0.476585 -2.38381 24.7804
0.507576 -2.38073 24.7519
0.537638 -2.37916 24.7282
0.568064 -2.37857 24.7161
0.60069 -2.37822 24.7256
0.632606 -2.37631 24.7164
0.661979 -2.37823 24.7154
0.692259 -2.37903 24.7135
0.726076 -2.37808 24.7282
0.756229 -2.37988 24.7327
0.786762 -2.38276 24.7484
0.818393 -2.38762 24.7875
0.851169 -2.38848 24.8057
0.884236 -2.39133 24.8403
0.917 -2.3962 24.8864
0.948309 -2.40111 24.9204
0.98182 -2.4069 24.977
1.01512 -2.41345 25.0363
1.05171 -2.41582 25.0907
1.08607 -2.42483 25.1727
1.11999 -2.43185 25.2362
0.322127 -2.36386 24.9068
0.355789 -2.35667 24.8644
0.385058 -2.35317 24.8128
0.416399 -2.35127 24.7963
0.446178 -2.35072 24.777
0.477588 -2.34717 24.7478
0.508454 -2.34609 24.7352
0.538358 -2.34466 24.7111
0.567318 -2.34562 24.6985
0.596248 -2.34657 24.6859
0.629453 -2.34385 24.6819
0.662291 -2.344 24.6976
0.692438 -2.344 24.6885
0.7235 -2.34533 24.6977
0.755004 -2.34732 24.7155
0.785645 -2.3494 24.7264
0.819009 -2.34864 24.7383
0.850049 -2.3519 24.7607
0.881127 -2.35673 24.7946
0.91344 -2.36194 24.8404
0.947008 -2.36436 24.8753
0.980665 -2.3668 24.9102
1.01453 -2.37401 24.9798
1.04729 -2.37929 25.0259
1.0803 -2.3878 25.0954
1.11407 -2.39573 25.1653
1.14873 -2.4037 25.2408
0.102268 -2.40803 25.6717
0.136573 -2.4102 25.7139
0.325021 -2.32691 24.8892
0.351509 -2.32736 24.8442
0.382373 -2.32098 24.7824
0.412665 -2.32072 24.7703
0.442299 -2.31944 24.7433
0.475653 -2.31354 24.7126
0.50765 -2.3143 24.7263
0.538953 -2.31283 24.7147
0.5688 -2.31144 24.6906
0.597716 -2.31241 24.6781
0.627426 -2.31252 24.6658
0.659539 -2.31051 24.6581
0.691608 -2.31112 24.671
0.721638 -2.31229 24.6704
0.753533 -2.3146 24.6945
0.785605 -2.31348 24.6933
0.816714 -2.31654 24.7158
0.849099 -2.31893 24.7433
0.879881 -2.32247 24.7656
0.912208 -2.32692 24.8069
0.945736 -2.3293 24.8417
0.978208 -2.33448 24.8876
1.01098 -2.3404 24.9403
1.04404 -2.34375 24.976
1.07883 -2.3493 25.0396
1.11414 -2.35523 25.1089
1.15065 -2.36642 25.2218
1.17969 -2.37346 25.248
0.0061135 -2.36075 25.5306
0.0360225 -2.36882 25.5879
0.0707328 -2.36462 25.5724
0.102685 -2.36548 25.5774
0.134876 -2.36433 25.5647
0.167032 -2.36317 25.552
0.198499 -2.35006 25.4159
0.291892 -2.30206 24.9368
0.318769 -2.30142 24.8838
0.348956 -2.29543 24.8168
0.38162 -2.28914 24.7733
0.411168 -2.28817 24.7477
0.442197 -2.2852 24.7193
0.473728 -2.28219 24.6963
0.504151 -2.28165 24.6843
0.537255 -2.27961 24.685
0.568656 -2.27853 24.6781
0.598536 -2.27793 24.6613
0.627399 -2.27893 24.6488
0.658152 -2.27789 24.6371
0.690467 -2.27804 24.6488
0.722473 -2.27796 24.6558
0.75127 -2.27995 24.651
0.783493 -2.2813 24.6708
0.814568 -2.28434 24.6933
0.846594 -2.28494 24.7047
0.879924 -2.2857 24.7281
0.912145 -2.29233 24.7853
0.943307 -2.29555 24.8077
0.975945 -2.29949 24.8468
1.00922 -2.3024 24.8826
1.04441 -2.30728 24.947
1.07716 -2.31245 24.993
1.1102 -2.32078 25.0624
1.14194 -2.32565 25.0965
1.17938 -2.33828 25.2263
1.21506 -2.34108 25.274
-0.026568 -2.32131 25.4503
0.00499859 -2.32437 25.4765
0.0375204 -2.32203 25.4561
0.0711102 -2.31793 25.4302
0.103163 -2.31797 25.4301
0.136911 -2.31281 25.3962
0.168615 -2.3117 25.3812
0.199775 -2.31014 25.3563
0.227551 -2.30589 25.2692
0.292297 -2.26695 24.9103
0.315221 -2.27223 24.8715
0.350999 -2.25941 24.7978
0.381581 -2.25612 24.7605
0.413676 -2.25159 24.7279
0.443133 -2.25067 24.7024
0.473065 -2.24933 24.6784
0.503019 -2.24874 24.6618
0.534409 -2.24767 24.6549
0.56628 -2.2477 24.662
0.597851 -2.24466 24.6404
0.628201 -2.24451 24.6322
0.657011 -2.24552 24.6197
0.688913 -2.24518 24.6241
0.72163 -2.24517 24.6383
0.751015 -2.24615 24.6309
0.783028 -2.24724 24.6472
0.815508 -2.24749 24.6606
0.845083 -2.2506 24.6711
0.876444 -2.25336 24.6937
0.907462 -2.25807 24.7275
0.942224 -2.25842 24.759
0.975561 -2.26297 24.809
1.00804 -2.26803 24.8549
1.04076 -2.27296 24.9009
1.07177 -2.27619 24.9202
1.10763 -2.2815 24.9917
1.14401 -2.28824 25.0759
1.17849 -2.2953 25.1461
1.21369 -2.30733 25.2541
-0.0299554 -2.28501 25.3662
0.00701538 -2.28206 25.3941
0.0402036 -2.28085 25.3946
0.0707538 -2.28178 25.3869
0.104236 -2.27621 25.3454
0.135421 -2.27468 25.3206
0.165323 -2.27567 25.3075
0.197606 -2.27164 25.271
0.318287 -2.23357 24.8383
0.350981 -2.22638 24.785
0.383149 -2.22188 24.7523
0.413625 -2.21866 24.7151
0.443666 -2.21809 24.6985
0.473666 -2.21752 24.6818
0.503728 -2.21527 24.6514
0.532815 -2.21534 24.6325
0.563831 -2.21307 24.6122
0.596115 -2.21225 24.6164
0.627365 -2.21288 24.6233
0.658466 -2.21148 24.6118
0.688191 -2.21206 24.6043
0.719589 -2.21312 24.6157
0.751483 -2.21367 24.6273
0.78157 -2.21386 24.6198
0.813379 -2.21542 24.6381
0.843809 -2.21822 24.6539
0.876406 -2.22035 24.6824
0.907408 -2.22364 24.7059
0.940786 -2.22436 24.7292
0.973103 -2.22935 24.775
1.00573 -2.23319 24.814
1.03755 -2.23815 24.8537
1.07427 -2.24227 24.9257
1.1054 -2.24743 24.9595
1.13866 -2.2521 25.0057
1.17187 -2.26029 25.0751
1.20745 -2.26864 25.1625
1.24423 -2.27966 25.2755
-0.0278141 -2.2449 25.3057
0.00728812 -2.24388 25.3335
0.0384551 -2.24363 25.3209
0.0691098 -2.24258 25.2942
0.102389 -2.23783 25.2599
0.13269 -2.23852 25.2489
0.164901 -2.2364 25.2311
0.197692 -2.23459 25.2234
0.22864 -2.22666 25.1345
0.319323 -2.19892 24.821
0.352046 -2.19279 24.7776
0.383119 -2.18893 24.7394
0.414668 -2.18516 24.7078
0.444044 -2.18369 24.6763
0.473586 -2.18467 24.6691
0.503444 -2.1834 24.6452
0.534322 -2.18129 24.6244
0.564064 -2.18003 24.6006
0.593472 -2.18102 24.5934
0.62558 -2.1799 24.5938
0.658287 -2.17873 24.5993
0.687038 -2.17978 24.5869
0.717308 -2.1807 24.5873
0.751579 -2.1794 24.6055
0.780793 -2.18134 24.6046
0.811841 -2.18164 24.6067
0.843901 -2.18514 24.6425
0.875357 -2.18722 24.6614
0.907362 -2.18926 24.6843
0.939745 -2.19097 24.7072
0.970892 -2.19617 24.7456
1.00403 -2.19894 24.7814
1.03837 -2.20361 24.8403
1.07044 -2.20825 24.8795
1.10128 -2.21109 24.895
1.13714 -2.21622 24.9662
1.17069 -2.22351 25.033
1.20757 -2.23048 25.1221
1.24388 -2.2418 25.235
1.27448 -2.24748 25.2639
-0.0305836 -2.21079 25.2498
0.00734665 -2.20466 25.2565
0.0405015 -2.20416 25.2667
0.0721409 -2.20326 25.254
0.10417 -2.20105 25.2322
0.135087 -2.19971 25.2072
0.165132 -2.19977 25.1876
0.19559 -2.20002 25.175
0.22693 -2.1969 25.1386
0.321929 -2.1623 24.801
0.352139 -2.15911 24.7589
0.383046 -2.15649 24.7305
0.413272 -2.1531 24.6887
0.443349 -2.15175 24.6652
0.473871 -2.15157 24.6573
0.504054 -2.15163 24.6486
0.534035 -2.14946 24.6182
0.56394 -2.1473 24.588
0.592735 -2.14836 24.5756
0.624353 -2.1472 24.5713
0.655663 -2.14768 24.5779
0.687526 -2.14738 24.5831
0.716239 -2.14844 24.5707
0.748104 -2.14815 24.5758
0.780023 -2.14885 24.5894
0.811412 -2.1482 24.5871
0.843158 -2.15119 24.6168
0.874057 -2.15428 24.6392
0.904518 -2.15705 24.655
0.937153 -2.15778 24.6732
0.97053 -2.15994 24.708
1.00286 -2.16481 24.7537
1.03545 -2.16956 24.7995
1.06609 -2.17402 24.8266
1.10206 -2.17652 24.8817
1.13463 -2.18213 24.9309
1.16827 -2.18634 24.9776
1.20292 -2.19381 25.0542
1.23766 -2.20217 25.136
1.2756 -2.21423 25.2662
0.00450085 -2.16878 25.1787
0.0378923 -2.16996 25.2121
0.0681684 -2.17068 25.2012
0.101059 -2.16533 25.1563
0.133845 -2.16673 25.1835
0.167319 -2.16118 25.1448
0.197878 -2.16089 25.1284
0.23016 -2.15795 25.1046
0.321838 -2.13015 24.7949
0.351919 -2.12823 24.7634
0.381029 -2.12402 24.7005
0.411151 -2.12269 24.677
0.440345 -2.12283 24.6582
0.472375 -2.11883 24.6306
0.503966 -2.11886 24.6358
0.53375 -2.11765 24.612
0.564557 -2.1156 24.5913
0.593353 -2.11668 24.579
0.622119 -2.11776 24.5667
0.656004 -2.115 24.5701
0.687688 -2.11321 24.5613
0.716858 -2.11515 24.5605
0.746027 -2.11709 24.5597
0.779057 -2.11622 24.5707
0.810514 -2.11669 24.5783
0.840872 -2.11942 24.5941
0.872125 -2.12208 24.6168
0.903822 -2.12287 24.6282
0.936191 -2.12462 24.6524
0.968119 -2.12806 24.6854
1.00056 -2.13273 24.7311
1.0334 -2.13363 24.7511
1.06798 -2.13952 24.8218
1.10014 -2.14203 24.8466
1.13294 -2.1484 24.9041
1.16439 -2.15154 24.9265
1.2013 -2.15797 25.0146
1.23586 -2.1655 25.0904
1.2725 -2.17468 25.1922
1.30583 -2.18211 25.2547
0.0378199 -2.13084 25.1315
0.0706834 -2.13204 25.1594
0.100726 -2.13215 25.1399
0.131822 -2.12994 25.1084
0.164487 -2.12732 25.0921
0.196354 -2.12684 25.0893
0.228887 -2.12331 25.0628
0.322066 -2.09678 24.78
0.347688 -2.09922 24.7429
0.378439 -2.09341 24.6815
0.409151 -2.09115 24.6553
0.43945 -2.08941 24.6304
0.471964 -2.08667 24.6195
0.503195 -2.08727 24.6267
0.534731 -2.08351 24.597
0.564441 -2.08293 24.5786
0.59322 -2.08402 24.5663
0.622827 -2.08286 24.5426
0.653831 -2.08152 24.5313
0.685661 -2.08218 24.545
0.717481 -2.08188 24.5502
0.746135 -2.08298 24.5379
0.778662 -2.08273 24.5498
0.810263 -2.08404 24.5659
0.838877 -2.08515 24.5534
0.872204 -2.08753 24.5928
0.903132 -2.08876 24.6014
0.934888 -2.09238 24.6355
0.968027 -2.0938 24.6637
1.00024 -2.09637 24.6923
1.03379 -2.10065 24.7443
1.06503 -2.1052 24.7781
1.0985 -2.10843 24.8198
1.13101 -2.11273 24.8605
1.16692 -2.11761 24.9319
1.19947 -2.12085 24.9634
1.23335 -2.12808 25.033
1.26814 -2.13623 25.1148
1.30543 -2.14709 25.2329
0.0356164 -2.09877 25.1029
0.0680366 -2.09586 25.0793
0.133806 -2.09434 25.0929
0.163716 -2.09449 25.0735
0.194375 -2.09326 25.0489
0.228425 -2.09136 25.0573
0.259355 -2.08479 24.9814
0.325228 -2.06228 24.7857
0.376745 -2.06403 24.6838
0.408024 -2.0596 24.6422
0.438048 -2.05833 24.6189
0.468869 -2.0574 24.6074
0.501946 -2.05156 24.5739
0.534246 -2.05147 24.586
0.564967 -2.05054 24.5746
0.593739 -2.05165 24.5624
0.623454 -2.05122 24.5459
0.652161 -2.05233 24.5336
0.685287 -2.05191 24.5505
0.717158 -2.05178 24.5578
0.74582 -2.0529 24.5454
0.776894 -2.05336 24.55
0.809612 -2.05337 24.5658
0.839519 -2.05351 24.5569
0.871164 -2.0548 24.573
0.902833 -2.0561 24.589
0.933453 -2.05942 24.6113
0.966563 -2.06192 24.6483
0.99899 -2.06407 24.6759
1.03011 -2.06856 24.7097
1.06241 -2.07039 24.7326
1.09542 -2.07503 24.7816
1.12947 -2.07785 24.825
1.16258 -2.08221 24.8711
1.19484 -2.08762 24.9168
1.22851 -2.09329 24.9747
1.26453 -2.10091 25.0637
1.2999 -2.11181 25.1687
1.3356 -2.11505 25.2213
0.101807 -2.06308 25.0965
0.13472 -2.06037 25.0818
0.165403 -2.05988 25.0648
0.19632 -2.05777 25.0335
0.226568 -2.0581 25.0212
0.257674 -2.05519 24.9853
0.376519 -2.03217 24.6773
0.407708 -2.02858 24.6427
0.438606 -2.02591 24.6148
0.468418 -2.02536 24.5963
0.49996 -2.02166 24.5668
0.531131 -2.02225 24.574
0.56231 -2.02284 24.5811
0.593999 -2.0176 24.5402
0.623313 -2.01864 24.5332
0.652003 -2.01977 24.521
0.683771 -2.0194 24.5256
0.716348 -2.01928 24.54
0.746413 -2.01811 24.5215
0.774826 -2.02161 24.5272
0.807582 -2.02108 24.5393
0.839259 -2.02093 24.5444
0.870762 -2.02257 24.5624
0.90218 -2.02542 24.5889
0.934477 -2.02646 24.6082
0.965566 -2.02931 24.6307
0.998213 -2.03175 24.6629
1.02997 -2.03432 24.688
1.06347 -2.03634 24.7228
1.09464 -2.03937 24.7452
1.12605 -2.04529 24.7905
1.15862 -2.04856 24.8249
1.19448 -2.05362 24.8982
1.23124 -2.058 24.9724
1.26372 -2.06248 25.0118
1.30008 -2.07212 25.1173
1.33828 -2.08357 25.2476
0.133322 -2.03175 25.1019
0.165515 -2.02663 25.0513
0.196143 -2.02547 25.0268
0.227767 -2.02344 25.0055
0.258274 -2.0223 24.981
0.288804 -2.01932 24.9383
0.376207 -2.0011 24.6777
0.407317 -1.99835 24.65
0.438499 -1.99402 24.6086
0.468449 -1.99283 24.5854
0.498287 -1.99242 24.569
0.530457 -1.98873 24.5464
0.562113 -1.98764 24.5432
0.5938 -1.98608 24.5362
0.623833 -1.98633 24.5292
0.652516 -1.98748 24.517
0.682506 -1.98773 24.5099
0.715307 -1.9872 24.5232
0.747055 -1.9865 24.5248
0.775657 -1.98765 24.5125
0.807925 -1.98892 24.5354
0.839733 -1.98862 24.5406
0.868666 -1.99032 24.5359
0.901396 -1.99171 24.5631
0.932262 -1.99468 24.5855
0.962676 -1.99736 24.6013
0.995677 -1.99853 24.6273
1.02984 -2.00015 24.6663
1.06092 -2.00314 24.6887
1.09251 -2.00715 24.7227
1.12539 -2.01015 24.759
1.15964 -2.01594 24.8267
1.19215 -2.01621 24.8382
1.22656 -2.02397 24.9192
1.25824 -2.02847 24.9531
1.29299 -2.03631 25.0346
1.3295 -2.04587 25.1402
1.36845 -2.05155 25.236
0.195691 -1.99479 25.0343
0.227586 -1.99119 24.9987
0.258338 -1.98917 24.9676
0.292822 -1.97774 24.8811
0.37612 -1.97057 24.6859
0.407089 -1.96654 24.6435
0.437112 -1.96537 24.6201
0.468077 -1.96266 24.5927
0.498033 -1.96072 24.5625
0.529167 -1.95778 24.5361
0.559489 -1.95767 24.5284
0.590728 -1.9581 24.5353
0.623498 -1.95623 24.5365
0.652188 -1.9574 24.5243
0.680848 -1.95856 24.5121
0.714134 -1.95716 24.5226
0.746728 -1.95487 24.5185
0.775321 -1.95604 24.5063
0.806091 -1.95946 24.5338
0.839448 -1.95852 24.5481
0.869008 -1.9592 24.5407
0.90038 -1.96096 24.5586
0.931297 -1.96219 24.5679
0.963042 -1.96403 24.5891
0.995713 -1.96561 24.6159
1.02682 -1.96908 24.6433
1.05864 -1.97035 24.6593
1.09145 -1.97349 24.6975
1.12337 -1.97667 24.7279
1.15685 -1.97972 24.7696
1.18815 -1.98272 24.792
1.22207 -1.98906 24.8599
1.25673 -1.99521 24.9309
1.29471 -1.99859 25.0072
1.33281 -2.00885 25.1318
1.36844 -2.01978 25.2393
0.283844 -1.96675 24.9968
0.380916 -1.9367 24.7155
0.408567 -1.93476 24.6562
0.436806 -1.93438 24.6205
0.467836 -1.93094 24.5861
0.497727 -1.92981 24.5629
0.529395 -1.92792 24.552
0.558772 -1.92772 24.5332
0.591287 -1.92585 24.5318
0.623368 -1.92372 24.5237
0.652042 -1.9249 24.5115
0.680686 -1.92608 24.4993
0.715389 -1.92281 24.5076
0.746403 -1.92325 24.5123
0.774988 -1.92444 24.5001
0.80553 -1.92565 24.5068
0.837447 -1.92595 24.5186
0.867754 -1.9272 24.5232
0.89924 -1.92879 24.5412
0.930652 -1.93155 24.5677
0.962933 -1.93253 24.5871
0.994365 -1.93351 24.5985
1.02469 -1.93697 24.6194
1.05826 -1.93665 24.6386
1.0889 -1.93931 24.6552
1.12049 -1.94324 24.6891
1.15292 -1.94638 24.7234
1.18809 -1.94455 24.7427
1.22035 -1.95022 24.7932
1.25326 -1.95557 24.8454
1.28776 -1.96237 24.92
1.32256 -1.97 25.0013
1.36351 -1.98177 25.1592
0.379503 -1.9079 24.7271
0.435425 -1.90569 24.6319
0.469047 -1.89862 24.5894
0.499247 -1.89812 24.5755
0.528055 -1.8993 24.5634
0.557855 -1.89821 24.5402
0.590268 -1.89453 24.5204
0.623899 -1.89144 24.5196
0.652565 -1.89264 24.5074
0.681201 -1.89384 24.4953
0.711724 -1.89427 24.4953
0.744756 -1.89408 24.5145
0.774695 -1.89437 24.5074
0.803257 -1.89558 24.4952
0.836453 -1.89526 24.514
0.86823 -1.89494 24.5193
0.897125 -1.89666 24.5146
0.929848 -1.89797 24.5418
0.960704 -1.90086 24.5643
0.99274 -1.90132 24.5773
1.02458 -1.90254 24.5944
1.05571 -1.90301 24.5988
1.0868 -1.9073 24.6326
1.11663 -1.91007 24.6431
1.15114 -1.90735 24.6512
1.18215 -1.90951 24.6667
1.21347 -1.91382 24.7004
1.24616 -1.91832 24.746
1.27926 -1.92252 24.7918
1.31526 -1.92537 24.8505
1.35386 -1.93457 24.9742
1.39452 -1.94836 25.1442
0.435485 -1.87544 24.644
0.467484 -1.86955 24.5945
0.497896 -1.86947 24.5869
0.527338 -1.86931 24.5681
0.557992 -1.86636 24.5358
0.590166 -1.86321 24.5186
0.621275 -1.86378 24.5258
0.651278 -1.86407 24.5188
0.679928 -1.86528 24.5067
0.708549 -1.8665 24.4945
0.741569 -1.86554 24.5069
0.774404 -1.86429 24.5147
0.802974 -1.86552 24.5025
0.835242 -1.86594 24.5191
0.867961 -1.86485 24.5267
0.896486 -1.86609 24.5144
0.927516 -1.86653 24.5189
0.960643 -1.86696 24.5425
0.989534 -1.8687 24.5378
1.02237 -1.86999 24.5649
1.0534 -1.87136 24.5761
1.08533 -1.87182 24.5876
1.11727 -1.87228 24.5992
1.14838 -1.87366 24.6103
1.17997 -1.87752 24.6442
1.21067 -1.88015 24.6606
1.24528 -1.87872 24.6789
1.27815 -1.88452 24.7359
1.30966 -1.88883 24.7696
1.34277 -1.89467 24.8267
1.38055 -1.90378 24.9432
1.41476 -1.90568 24.9783
0.290504 -1.87073 25.0731
0.467173 -1.83945 24.6033
0.499777 -1.83698 24.5958
0.529295 -1.83669 24.5763
0.561977 -1.83259 24.5543
0.592297 -1.83253 24.5467
0.622299 -1.83199 24.5313
0.651961 -1.83097 24.5082
0.680739 -1.83135 24.4896
0.709774 -1.83282 24.4842
0.742843 -1.83304 24.508
0.774201 -1.83187 24.5019
0.802754 -1.83311 24.4897
0.833636 -1.83421 24.4992
0.865939 -1.83242 24.4971
0.896216 -1.83367 24.5017
0.927964 -1.83393 24.5116
0.96059 -1.83312 24.5207
0.989586 -1.83596 24.5262
1.02156 -1.83658 24.5405
1.05407 -1.83746 24.5615
1.08252 -1.83872 24.5489
1.11491 -1.84066 24.5765
1.14601 -1.84113 24.5809
1.1773 -1.84357 24.6019
1.21006 -1.84429 24.6219
1.24121 -1.84568 24.633
1.27416 -1.85124 24.6899
1.3071 -1.85199 24.7099
1.34229 -1.85716 24.7803
1.37774 -1.86244 24.852
1.41511 -1.87203 24.9684
-0.0617772 -1.88931 25.6991
-0.0266927 -1.885 25.6816
0.00448497 -1.88307 25.6383
0.286129 -1.84465 25.0836
0.322734 -1.83257 25.0101
0.349351 -1.82743 24.8932
0.416244 -1.84241 24.7282
0.499901 -1.80822 24.6232
0.533979 -1.80237 24.5979
0.562231 -1.80265 24.5702
0.590762 -1.80351 24.5518
0.622002 -1.80113 24.5316
0.651663 -1.80013 24.5085
0.681265 -1.79914 24.4855
0.709855 -1.80039 24.4734
0.742272 -1.80002 24.4856
0.774707 -1.79965 24.4979
0.803253 -1.80091 24.4857
0.832125 -1.80264 24.4812
0.864948 -1.80178 24.4924
0.896695 -1.80146 24.4977
0.925167 -1.80272 24.4855
0.958413 -1.80235 24.5043
0.989268 -1.80354 24.5136
1.01902 -1.80379 24.5048
1.05183 -1.80502 24.532
1.08211 -1.80713 24.5428
1.11241 -1.80924 24.5537
1.14537 -1.81049 24.5807
1.17566 -1.81133 24.581
1.20762 -1.81267 24.5993
1.23874 -1.81315 24.6036
1.2717 -1.81609 24.6416
1.30595 -1.8192 24.691
1.33815 -1.82266 24.725
1.37049 -1.82763 24.7703
1.40647 -1.8359 24.8679
1.4441 -1.83973 24.9451
-0.0975624 -1.86007 25.6932
-0.063152 -1.85648 25.6746
-0.0259424 -1.85079 25.6709
0.00549983 -1.85093 25.659
0.0364835 -1.85038 25.6316
0.069031 -1.84779 25.6015
0.11676 -1.88873 25.4114
0.257652 -1.81007 25.0931
0.288159 -1.80854 25.0608
0.347927 -1.7984 24.9048
0.499066 -1.78042 24.6502
0.53134 -1.77542 24.6125
0.561187 -1.77444 24.5893
0.589682 -1.77523 24.5694
0.621708 -1.77027 24.5319
0.650385 -1.77153 24.5198
0.68 -1.77056 24.4967
0.710518 -1.771 24.4968
0.743543 -1.77073 24.5162
0.774408 -1.76884 24.4982
0.802954 -1.77011 24.4861
0.832002 -1.77209 24.4854
0.865632 -1.77253 24.5163
0.895516 -1.77287 24.5092
0.924001 -1.77416 24.4968
0.958245 -1.77263 24.5154
0.989948 -1.77195 24.5169
1.01748 -1.77474 24.5086
1.0508 -1.77436 24.5274
1.0826 -1.77405 24.5326
1.11143 -1.77582 24.5278
1.14435 -1.77704 24.5549
1.1747 -1.77831 24.5593
1.2062 -1.78164 24.5895
1.23857 -1.78297 24.6112
1.27205 -1.78336 24.6347
1.30341 -1.78753 24.6683
1.33408 -1.79015 24.6839
1.37007 -1.79356 24.7487
1.40721 -1.79819 24.8304
1.4402 -1.81061 24.933
-0.099199 -1.82703 25.66
-0.0623765 -1.82193 25.659
-0.0270974 -1.81683 25.6336
0.0055973 -1.81646 25.6345
0.037162 -1.81673 25.627
0.0674481 -1.81798 25.6137
0.0977038 -1.81924 25.6004
0.133096 -1.8149 25.5896
0.256182 -1.78081 25.1048
0.290192 -1.77249 25.038
0.317195 -1.76809 24.9288
0.347539 -1.76783 24.9121
0.380252 -1.76159 24.8586
0.414545 -1.75526 24.8248
0.469784 -1.75223 24.7053
0.495023 -1.75429 24.6574
0.530058 -1.74597 24.6169
0.559871 -1.74574 24.6006
0.58838 -1.74655 24.5807
0.619421 -1.74384 24.5542
0.651983 -1.73984 24.5323
0.68064 -1.74112 24.5202
0.711184 -1.74156 24.5204
0.743059 -1.74034 24.5188
0.773182 -1.74024 24.5096
0.801741 -1.74153 24.4974
0.830925 -1.74254 24.4892
0.864871 -1.74031 24.4996
0.896093 -1.73985 24.4987
0.924563 -1.74115 24.4864
0.958275 -1.74028 24.5059
0.988734 -1.74262 24.5215
1.01725 -1.74465 24.516
1.05051 -1.74409 24.5329
1.08239 -1.74394 24.5401
1.11132 -1.74581 24.5368
1.1433 -1.74636 24.5504
1.17513 -1.74606 24.5556
1.20704 -1.74794 24.5783
1.23899 -1.75066 24.6076
1.27029 -1.75394 24.6348
1.30306 -1.75361 24.6467
1.33716 -1.75793 24.7042
1.37122 -1.76094 24.7504
1.40443 -1.76652 24.8075
1.44281 -1.77466 24.9243
-0.10047 -1.79637 25.6669
-0.0618821 -1.78707 25.6336
-0.0283789 -1.78609 25.6387
0.0051292 -1.78512 25.6439
0.0394666 -1.77991 25.6031
0.0684346 -1.7835 25.602
0.100108 -1.78169 25.5693
0.132613 -1.78306 25.5909
0.254715 -1.75153 25.1165
0.315764 -1.739 24.9403
0.347352 -1.73578 24.9051
0.37885 -1.73258 24.87
0.407826 -1.7334 24.8497
0.495377 -1.71944 24.6244
0.530716 -1.71422 24.6198
0.559875 -1.71605 24.6171
0.589227 -1.71744 24.6121
0.62207 -1.71373 24.5948
0.654165 -1.71021 24.5719
0.683186 -1.71077 24.5561
0.712425 -1.71217 24.551
0.743357 -1.71032 24.533
0.771958 -1.71162 24.5208
0.801447 -1.71073 24.4977
0.833383 -1.70966 24.4984
0.866268 -1.70757 24.4995
0.895746 -1.70834 24.4923
0.925513 -1.70861 24.4836
0.958198 -1.70845 24.4997
0.9885 -1.71098 24.5156
1.01693 -1.71231 24.5033
1.05066 -1.71224 24.5291
1.08119 -1.71459 24.5447
1.11074 -1.71609 24.5441
1.14215 -1.717 24.5555
1.17407 -1.71741 24.5671
1.20674 -1.71706 24.5791
1.23855 -1.7182 24.5951
1.26853 -1.72453 24.6349
1.30351 -1.72392 24.6636
1.3358 -1.72652 24.6932
1.36867 -1.73071 24.7389
1.40242 -1.73602 24.7992
1.4405 -1.74393 24.9129
-0.0969392 -1.75866 25.6489
-0.0623656 -1.75572 25.6428
-0.0229326 -1.74734 25.6355
0.0087879 -1.74601 25.6079
0.0430759 -1.74084 25.5673
0.134247 -1.74054 25.4826
0.163602 -1.72795 25.2798
0.192906 -1.72786 25.2423
0.225455 -1.72028 25.1578
0.255978 -1.71863 25.1214
0.314336 -1.70989 24.9518
0.347169 -1.70376 24.8981
0.37745 -1.70354 24.8815
0.407968 -1.70386 24.8744
0.49588 -1.68741 24.6226
0.529064 -1.68256 24.5962
0.559301 -1.68387 24.6009
0.589795 -1.68782 24.6358
0.621479 -1.68605 24.6249
0.654126 -1.6821 24.6029
0.68383 -1.68122 24.5797
0.712519 -1.68253 24.5675
0.740849 -1.68341 24.5475
0.774266 -1.67963 24.5375
0.8051 -1.67889 24.5293
0.836384 -1.67829 24.5275
0.867001 -1.67691 24.5117
0.8955 -1.67824 24.4995
0.925351 -1.67862 24.4924
0.959131 -1.6784 24.5188
0.988973 -1.67879 24.5116
1.0188 -1.67917 24.5045
1.05056 -1.6804 24.523
1.08169 -1.68155 24.5344
1.11213 -1.68331 24.5442
1.14252 -1.68681 24.5677
1.17444 -1.68778 24.5838
1.2065 -1.68831 24.5975
1.23838 -1.68801 24.6026
1.27186 -1.69119 24.6487
1.3025 -1.69515 24.6753
1.33472 -1.69571 24.6889
1.3682 -1.7002 24.7425
1.40686 -1.70406 24.8337
1.44415 -1.71005 24.9274
-0.0625351 -1.72224 25.6252
-0.0253409 -1.71815 25.6457
0.0333586 -1.7014 25.3137
0.0645286 -1.7017 25.3065
0.0985895 -1.70137 25.3352
0.128435 -1.6976 25.2535
0.157135 -1.69903 25.2262
0.189926 -1.69434 25.1801
0.224115 -1.68749 25.1279
0.256324 -1.68348 25.0855
0.31395 -1.67924 24.959
0.346791 -1.67317 24.9053
0.376054 -1.67449 24.8929
0.405287 -1.6758 24.8805
0.495382 -1.65211 24.5724
0.528215 -1.65114 24.5842
0.560048 -1.65075 24.59
0.587059 -1.66058 24.6463
0.621954 -1.65989 24.6832
0.648986 -1.65861 24.6239
0.682572 -1.65249 24.5909
0.712618 -1.65286 24.5839
0.741877 -1.65428 24.5789
0.770842 -1.65489 24.5629
0.807787 -1.64776 24.5584
0.837634 -1.64736 24.5429
0.866184 -1.6487 24.5307
0.896333 -1.64874 24.523
0.926843 -1.64921 24.523
0.957985 -1.64976 24.5301
0.989236 -1.64919 24.5281
1.0204 -1.64975 24.5351
1.05153 -1.65088 24.5466
1.08182 -1.65115 24.5426
1.1123 -1.65288 24.5526
1.14333 -1.65614 24.5801
1.17387 -1.658 24.5911
1.20545 -1.6596 24.609
1.24096 -1.6583 24.6385
1.27242 -1.65988 24.6543
1.30359 -1.66563 24.6997
1.33583 -1.66617 24.7132
1.36861 -1.67128 24.7658
1.40678 -1.67377 24.8433
1.44082 -1.67824 24.8991
-0.0579833 -1.68729 25.6656
-0.0246475 -1.68539 25.6538
0.00183254 -1.67054 25.3382
0.0329023 -1.67032 25.321
0.0630125 -1.67091 25.3009
0.0968087 -1.66592 25.2613
0.127728 -1.66455 25.2287
0.159004 -1.6628 25.1975
0.193008 -1.65683 25.1521
0.22424 -1.65439 25.1139
0.255923 -1.65267 25.0927
0.315038 -1.64426 24.9334
0.345383 -1.64408 24.9167
0.37466 -1.64541 24.9043
0.403906 -1.64674 24.8919
0.495101 -1.62198 24.5809
0.52698 -1.62171 24.5887
0.558744 -1.622 24.6011
0.58771 -1.63018 24.6636
0.625999 -1.62713 24.7155
0.660169 -1.61879 24.6639
0.688018 -1.61887 24.6282
0.714561 -1.62322 24.6216
0.74645 -1.62285 24.6272
0.775151 -1.6242 24.615
0.802778 -1.62429 24.5793
0.834273 -1.62258 24.5684
0.866701 -1.61986 24.5579
0.89888 -1.619 24.5625
0.928278 -1.62028 24.5582
0.959621 -1.61915 24.5518
0.990804 -1.61971 24.5588
1.022 -1.62026 24.5659
1.05228 -1.62109 24.5664
1.08279 -1.62282 24.5765
1.11507 -1.62257 24.5866
1.14399 -1.62559 24.5924
1.1747 -1.62911 24.6186
1.20789 -1.62915 24.6384
1.24148 -1.62869 24.6573
1.27271 -1.63056 24.6734
1.30342 -1.63673 24.7183
1.3363 -1.63636 24.7302
1.37546 -1.64118 24.8361
1.41384 -1.63969 24.8849
0.00058138 -1.64226 25.3748
0.0357507 -1.63463 25.3149
0.0962359 -1.63446 25.2603
0.128862 -1.62993 25.2097
0.162129 -1.6253 25.1695
0.193156 -1.62371 25.138
0.224897 -1.62202 25.1168
0.256958 -1.61824 25.0739
0.318169 -1.61177 24.966
0.34419 -1.61539 24.9361
0.377435 -1.61437 24.9482
0.49677 -1.5888 24.5794
0.528112 -1.58941 24.5906
0.557442 -1.59323 24.6122
0.593456 -1.59889 24.7327
0.626047 -1.59725 24.7321
0.654026 -1.59737 24.6962
0.688015 -1.59173 24.6708
0.716475 -1.59269 24.6508
0.744889 -1.59364 24.6307
0.773932 -1.59543 24.6262
0.807389 -1.59065 24.6057
0.835595 -1.59358 24.6037
0.870533 -1.58943 24.6058
0.899131 -1.59081 24.5935
0.927698 -1.5922 24.5812
0.960581 -1.59022 24.5823
0.992327 -1.59071 24.5942
1.02269 -1.59099 24.5902
1.05321 -1.5927 24.6004
1.08552 -1.59243 24.6105
1.11446 -1.59545 24.6163
1.14283 -1.59964 24.6264
1.17694 -1.59993 24.6573
1.21116 -1.59855 24.6747
1.24444 -1.59858 24.6946
1.27829 -1.60463 24.7677
1.31124 -1.60424 24.7798
1.34289 -1.61103 24.8367
1.37748 -1.61136 24.8677
0.0928287 -1.60395 25.2266
0.130922 -1.59454 25.1936
0.163092 -1.59147 25.1577
0.194895 -1.58923 25.1288
0.225031 -1.58897 25.1027
0.255635 -1.58825 25.0782
0.285611 -1.58685 25.037
0.350286 -1.5833 25.0148
0.379001 -1.58342 24.9781
0.49686 -1.55731 24.5772
0.529556 -1.55655 24.5901
0.557459 -1.56345 24.6286
0.589669 -1.5697 24.7109
0.624764 -1.56833 24.7434
0.653972 -1.57012 24.739
0.684494 -1.56678 24.6965
0.716583 -1.56287 24.6673
0.74432 -1.56566 24.6576
0.774669 -1.56571 24.6499
0.840164 -1.56182 24.6483
0.870248 -1.55851 24.6061
0.901141 -1.55929 24.612
0.931806 -1.56105 24.6246
0.963236 -1.56116 24.6296
0.991802 -1.56257 24.6172
1.02365 -1.56427 24.6405
1.05345 -1.56691 24.6514
1.08198 -1.56833 24.6389
1.11559 -1.56872 24.6667
1.14881 -1.56871 24.6867
1.18207 -1.5687 24.7067
1.24581 -1.57456 24.768
1.28264 -1.57159 24.7947
1.31613 -1.57247 24.8218
0.0949384 -1.56795 25.2019
0.131905 -1.5607 25.1818
0.163776 -1.55849 25.1528
0.195053 -1.55619 25.1146
0.225698 -1.55605 25.0978
0.255244 -1.55743 25.0853
0.285809 -1.5573 25.0685
0.316307 -1.55662 25.0441
0.346208 -1.5564 25.0181
0.377611 -1.55422 24.9895
0.497699 -1.52623 24.5891
0.530166 -1.52571 24.602
0.558275 -1.53334 24.6515
0.590796 -1.5399 24.7419
0.626602 -1.53759 24.7728
0.653309 -1.54199 24.7661
0.688055 -1.53386 24.7216
0.720362 -1.53222 24.7179
0.75053 -1.53263 24.7109
0.779317 -1.53404 24.6986
0.807723 -1.53505 24.6784
0.835724 -1.53567 24.6503
0.934066 -1.53153 24.6651
0.962029 -1.53169 24.634
0.991048 -1.53711 24.6629
1.02145 -1.53913 24.6741
1.05503 -1.5383 24.6915
1.08718 -1.53875 24.7055
1.12873 -1.52989 24.729
1.15488 -1.53626 24.7359
1.18819 -1.53669 24.7598
1.21687 -1.54196 24.7803
1.25122 -1.5435 24.8221
0.0946982 -1.53581 25.1947
0.13149 -1.52975 25.1888
0.163957 -1.52543 25.1385
0.194652 -1.52532 25.1217
0.225305 -1.52521 25.1049
0.255907 -1.52455 25.0805
0.28695 -1.52231 25.0425
0.316395 -1.5237 25.0301
0.346845 -1.5236 25.0133
0.377254 -1.52351 24.9965
0.498717 -1.49652 24.6198
0.532939 -1.49556 24.6497
0.560953 -1.50295 24.6955
0.589507 -1.51096 24.753
0.62599 -1.5085 24.7911
0.657835 -1.50682 24.7801
0.720797 -1.50268 24.7424
0.749303 -1.50372 24.7222
0.778102 -1.50514 24.7098
0.810106 -1.50476 24.7155
0.842181 -1.50516 24.7298
0.87231 -1.50559 24.7227
0.900658 -1.50664 24.7024
0.928571 -1.5073 24.6742
0.965373 -1.50491 24.7117
0.995246 -1.50753 24.7227
1.02805 -1.50706 24.7352
1.06087 -1.5066 24.7476
1.09372 -1.50614 24.76
0.0958385 -1.50239 25.191
0.131401 -1.49746 25.1813
0.163552 -1.49453 25.1456
0.193186 -1.49593 25.1331
0.223988 -1.49518 25.109
0.255911 -1.49227 25.0735
0.286574 -1.49152 25.0495
0.316026 -1.49293 25.0371
0.345448 -1.49434 25.0246
0.375962 -1.49361 25.0007
0.493485 -1.47181 24.6277
0.527557 -1.46809 24.624
0.559931 -1.47442 24.7145
0.593835 -1.47904 24.8021
0.625379 -1.47938 24.8094
0.657485 -1.47896 24.8153
0.687425 -1.47828 24.7916
0.71827 -1.47547 24.7569
0.748077 -1.47478 24.7334
0.780107 -1.47439 24.7392
0.813567 -1.47376 24.7588
0.842366 -1.47521 24.7464
0.871134 -1.47667 24.734
0.904289 -1.47655 24.7545
0.937869 -1.47682 24.7828
0.0976513 -1.47089 25.2286
0.131155 -1.46584 25.1811
0.162075 -1.4651 25.157
0.192792 -1.46503 25.1401
0.223737 -1.46365 25.1088
0.254602 -1.46227 25.0776
0.285153 -1.46221 25.0609
0.314618 -1.46364 25.0484
0.34509 -1.46358 25.0316
0.374581 -1.46436 25.012
0.4987 -1.4368 24.6522
0.527047 -1.44035 24.6586
0.569954 -1.44669 24.8876
0.595696 -1.44929 24.8453
0.627218 -1.44847 24.8389
0.655917 -1.44955 24.8185
0.684255 -1.45025 24.7903
0.718966 -1.44549 24.7807
0.753292 -1.44287 24.7896
0.783525 -1.44332 24.7825
0.812367 -1.44478 24.7701
0.841179 -1.44625 24.7577
0.874705 -1.44561 24.7774
0.907166 -1.4456 24.7909
0.935941 -1.44708 24.7784
0.967869 -1.45155 24.8291
0.997876 -1.45417 24.8402
1.03082 -1.45368 24.8528
1.06379 -1.45319 24.8653
0.127567 -1.43628 25.1546
0.160602 -1.43566 25.1683
0.191477 -1.43496 25.1442
0.223489 -1.43213 25.1086
0.254226 -1.43143 25.0846
0.283734 -1.43287 25.0721
0.313213 -1.43432 25.0597
0.347563 -1.43021 25.0462
0.377229 -1.42981 25.0133
0.500365 -1.40678 24.6899
0.529117 -1.41325 24.7366
0.557545 -1.42793 24.8745
0.597184 -1.41828 24.8705
0.625944 -1.41939 24.8501
0.654961 -1.42085 24.8377
0.685296 -1.4213 24.8307
0.722578 -1.41554 24.8411
0.754429 -1.41391 24.8301
0.782657 -1.41466 24.8018
0.815487 -1.41413 24.8145
0.848335 -1.4136 24.8273
0.877926 -1.41581 24.8307
0.906762 -1.41731 24.8182
0.937904 -1.421 24.8532
0.96753 -1.42323 24.8564
1.0009 -1.42309 24.877
1.0343 -1.42295 24.8975
1.10055 -1.42848 24.9848
0.129428 -1.40474 25.1921
0.158216 -1.40403 25.1303
0.190021 -1.40552 25.1555
0.222183 -1.40209 25.1126
0.252797 -1.40206 25.0959
0.282319 -1.40352 25.0834
0.316891 -1.39973 25.0769
0.34855 -1.39856 25.062
0.386179 -1.38581 24.9815
0.50438 -1.37908 24.7906
0.558039 -1.39629 24.8794
0.594623 -1.39027 24.8779
0.624673 -1.39028 24.8613
0.655047 -1.39073 24.8543
0.687229 -1.39106 24.869
0.719083 -1.39028 24.8669
0.7503 -1.38795 24.8399
0.786702 -1.38288 24.8467
0.814997 -1.38578 24.8417
0.908648 -1.3911 24.8932
0.937926 -1.39298 24.8885
0.970912 -1.39245 24.9012
1.00391 -1.39193 24.9139
1.06956 -1.39795 25.0011
1.13893 -1.40302 25.1137
0.160125 -1.37248 25.1676
0.187192 -1.37783 25.1701
0.253102 -1.37162 25.1201
0.28265 -1.37309 25.1076
0.320911 -1.36509 25.0995
0.351742 -1.36482 25.0837
0.404394 -1.31411 24.2438
0.531884 -1.36502 24.9551
0.564232 -1.35963 24.9015
0.595322 -1.3582 24.8807
0.623404 -1.36116 24.8725
0.655589 -1.36073 24.8785
0.689495 -1.35757 24.8752
0.719142 -1.36005 24.8819
0.746175 -1.36197 24.8497
0.841589 -1.36306 24.8789
0.874901 -1.36285 24.8997
0.907869 -1.3623 24.9125
0.940121 -1.3619 24.9182
0.973896 -1.36122 24.9381
1.00649 -1.36591 24.9974
1.0367 -1.36852 25.0085
1.10027 -1.37624 25.0871
0.151512 -1.28528 24.6693
0.179638 -1.28481 24.6102
0.190927 -1.34063 25.1514
0.28647 -1.34046 25.158
0.318353 -1.33777 25.1223
0.349002 -1.33718 25.0983
0.532951 -1.33197 24.9516
0.566014 -1.32485 24.8858
0.595272 -1.32563 24.8668
0.623996 -1.32862 24.8677
0.656455 -1.32667 24.8598
0.690482 -1.32359 24.8593
0.719848 -1.32552 24.8565
0.749707 -1.33074 24.8968
0.782801 -1.33118 24.9233
0.813178 -1.33167 24.9162
0.847387 -1.33108 24.9438
0.877756 -1.33158 24.9366
0.910363 -1.33146 24.9492
0.944999 -1.33147 24.9863
1.00661 -1.33767 25.033
1.06971 -1.34495 25.1038
0.225806 -1.30796 25.1943
0.255447 -1.30947 25.1818
0.285059 -1.31099 25.1692
0.317262 -1.30884 25.1458
0.351749 -1.30456 25.1298
0.373492 -1.31521 25.1233
0.473982 -1.30778 25.1081
0.56195 -1.29708 24.8751
0.595875 -1.29309 24.862
0.623931 -1.29607 24.8539
0.656064 -1.29533 24.856
0.689242 -1.29445 24.8705
0.71959 -1.29494 24.8635
0.752719 -1.29818 24.9237
0.781596 -1.30198 24.9346
0.814583 -1.30138 24.9476
0.847952 -1.30113 24.9686
0.88063 -1.30021 24.9735
0.912292 -1.30069 24.981
0.943068 -1.30154 24.9817
0.9737 -1.30821 25.0403
1.00589 -1.30869 25.0526
1.03955 -1.31397 25.1285
1.08236 -1.31533 25.265
1.12392 -1.3318 25.5301
0.255306 -1.27888 25.1985
0.2889 -1.27817 25.2198
0.313844 -1.28399 25.1926
0.471381 -1.27949 25.1154
0.565795 -1.26271 24.8934
0.594602 -1.26393 24.873
0.623656 -1.26548 24.8607
0.654023 -1.26597 24.8537
0.688005 -1.26529 24.8816
0.720956 -1.26433 24.8916
0.781765 -1.27169 24.9513
0.81411 -1.27197 24.966
0.846408 -1.27154 24.9719
0.878725 -1.27112 24.9778
0.912535 -1.27035 24.9978
0.944947 -1.27364 25.0434
0.975322 -1.27742 25.069
1.01075 -1.28187 25.1587
1.04544 -1.28126 25.1865
1.07666 -1.28691 25.2369
0.1446 -1.28683 24.3556
0.289242 -1.24748 25.2443
0.318292 -1.24809 25.2069
0.348525 -1.25059 25.2191
0.379425 -1.25106 25.212
0.448683 -1.24225 25.179
0.563197 -1.23523 24.9077
0.593332 -1.23476 24.8841
0.622398 -1.23632 24.8717
0.65575 -1.23466 24.8793
0.689098 -1.23399 24.8986
0.721027 -1.2344 24.9113
0.750123 -1.24192 24.9696
0.780564 -1.24244 24.9625
0.815824 -1.24036 24.9878
0.84523 -1.24227 24.9832
0.877558 -1.24184 24.9891
0.909981 -1.24212 25.0037
0.944501 -1.24045 25.0222
0.977687 -1.2497 25.1392
1.01162 -1.25144 25.1836
1.04577 -1.25068 25.2038
1.07983 -1.25058 25.2289
1.11287 -1.25575 25.2942
-0.128176 -1.20401 24.8711
-0.0965333 -1.20447 24.8899
-0.0646921 -1.2032 24.8753
-0.0313929 -1.20023 24.8602
0.00304674 -1.19551 24.8359
0.0331539 -1.19696 24.8395
0.0615429 -1.19979 24.8324
0.0896145 -1.20332 24.8319
0.0941185 -1.22566 24.6864
0.111224 -1.23805 24.619
0.313458 -1.2286 25.3144
0.35071 -1.21875 25.2566
0.383936 -1.21805 25.2704
0.413565 -1.21963 25.2577
0.748911 -1.21264 24.9808
0.784401 -1.20845 24.9847
0.816963 -1.2066 24.9778
0.845888 -1.20892 24.9718
0.876367 -1.20989 24.9704
0.911434 -1.20722 24.9858
0.941591 -1.20975 24.9973
0.977206 -1.21642 25.1179
1.01065 -1.22128 25.1902
1.04466 -1.22114 25.2154
1.07808 -1.22055 25.2283
1.11286 -1.22089 25.2658
-0.157008 -1.16909 24.8521
-0.126321 -1.16939 24.8435
-0.0919819 -1.16518 24.8266
-0.0598227 -1.16313 24.8042
-0.0304711 -1.16465 24.7925
0.00158334 -1.1626 24.7702
0.0316725 -1.1647 24.7881
0.065896 -1.16085 24.7788
0.0912508 -1.17144 24.8561
0.126351 -1.16668 24.8471
0.156091 -1.16908 24.8595
0.185622 -1.17105 24.8597
0.436042 -1.16485 25.2886
0.754538 -1.1779 25.0194
0.788471 -1.17234 24.9856
0.817526 -1.17397 24.973
0.846549 -1.17559 24.9605
0.878847 -1.17515 24.9664
0.911239 -1.1754 24.9812
0.945984 -1.17464 25.0132
0.974175 -1.18024 25.0337
1.01377 -1.18657 25.1975
1.04523 -1.18752 25.2042
1.07633 -1.19053 25.2278
1.11474 -1.1881 25.2792
-0.161247 -1.1412 24.8195
-0.125066 -1.13449 24.7919
-0.0928491 -1.13309 24.7859
-0.0601385 -1.13079 24.7723
-0.0294718 -1.13115 24.7681
0.00145684 -1.13055 24.75
0.0307101 -1.13209 24.7385
0.0635307 -1.13067 24.7478
0.0940397 -1.13265 24.7726
0.12368 -1.13502 24.7851
0.155856 -1.13441 24.7939
0.185243 -1.13909 24.8415
0.2186 -1.13863 24.8743
0.247237 -1.14433 24.9208
0.695169 -1.15206 25.1448
0.817401 -1.14551 25.0085
0.845379 -1.1463 24.9716
0.879163 -1.14544 24.9919
0.911491 -1.14499 24.9979
0.940484 -1.14665 24.9852
1.01789 -1.1531 25.2305
1.04622 -1.15421 25.2011
1.08016 -1.15908 25.2779
1.11069 -1.16165 25.2892
-0.188886 -1.10607 24.8237
-0.159292 -1.10701 24.8006
-0.125062 -1.10252 24.774
-0.094151 -1.10154 24.7439
-0.0625511 -1.10056 24.7335
-0.0306239 -1.10006 24.7425
0.00295128 -1.0969 24.7331
0.0325811 -1.09834 24.7285
0.062277 -1.09962 24.7223
0.0941082 -1.09956 24.7372
0.126271 -1.09842 24.7377
0.156377 -1.0996 24.7384
0.186469 -1.10274 24.7749
0.216777 -1.10613 24.8182
0.248998 -1.10776 24.8658
0.279286 -1.10792 24.8496
0.367007 -1.13872 24.6656
0.473107 -1.12592 25.2196
0.504773 -1.12354 25.1838
0.53463 -1.12559 25.1835
0.565742 -1.1228 25.1355
0.597998 -1.12184 25.1317
0.631759 -1.11942 25.1314
0.661802 -1.1208 25.126
0.689454 -1.12548 25.1283
0.726156 -1.11919 25.1212
0.75652 -1.12055 25.1204
0.82022 -1.11382 25.0455
0.852244 -1.11232 25.0344
0.88271 -1.11288 25.0272
0.911493 -1.11648 25.0333
0.983265 -1.12931 25.2847
-0.221013 -1.07529 24.8088
-0.19027 -1.07617 24.818
-0.154348 -1.06934 24.7771
-0.122749 -1.06807 24.7571
-0.0934225 -1.06962 24.7456
-0.062931 -1.06935 24.7223
-0.0312116 -1.06822 24.7121
0.00177219 -1.0659 24.7075
0.0329208 -1.06611 24.7137
0.0621096 -1.06768 24.7022
0.0912706 -1.06925 24.6907
0.124962 -1.06741 24.7123
0.156129 -1.06764 24.7184
0.18546 -1.07034 24.7319
0.218595 -1.06925 24.7533
0.250241 -1.07204 24.8131
0.280253 -1.0748 24.8375
0.414449 -1.09181 25.2693
0.442229 -1.09468 25.2434
0.475127 -1.08977 25.1887
0.503538 -1.08539 25.0692
0.53286 -1.08703 25.0567
0.564484 -1.08733 25.0623
0.598768 -1.08383 25.0565
0.628599 -1.08755 25.0811
0.660807 -1.08834 25.1013
0.692485 -1.08866 25.1068
0.722709 -1.08889 25.0899
0.755858 -1.08819 25.1033
0.789028 -1.08749 25.1166
0.817162 -1.08837 25.0795
0.927387 -1.09894 25.4053
0.956019 -1.10011 25.3755
-0.220723 -1.0438 24.8106
-0.185264 -1.03863 24.7989
-0.153613 -1.03738 24.7788
-0.122661 -1.03648 24.7488
-0.0929952 -1.03739 24.7306
-0.0625242 -1.03715 24.7074
-0.0321937 -1.03731 24.6917
-0.00107808 -1.0368 24.6812
0.031465 -1.03529 24.6846
0.0639744 -1.03401 24.6923
0.0920002 -1.0374 24.6925
0.123144 -1.03762 24.6986
0.155358 -1.03644 24.7005
0.185983 -1.03736 24.7087
0.217156 -1.03759 24.7147
0.247985 -1.03925 24.7396
0.280014 -1.04068 24.7829
0.30834 -1.04656 24.8294
0.338929 -1.04421 24.7774
0.378366 -1.06249 25.2314
0.407746 -1.06372 25.2081
0.440316 -1.05177 25.0357
0.468766 -1.055 25.0325
0.500688 -1.05078 24.976
0.532156 -1.05161 24.9888
0.565735 -1.04852 24.9788
0.595167 -1.05123 24.9853
0.623351 -1.05692 25.0133
0.659032 -1.05504 25.0522
0.692594 -1.05557 25.0899
0.723307 -1.05616 25.0849
0.75581 -1.05635 25.1007
0.789215 -1.05367 25.0928
0.821052 -1.05729 25.1412
0.85429 -1.05658 25.1546
0.92428 -1.06782 25.3754
0.957845 -1.06714 25.3888
0.98971 -1.07045 25.4253
-0.222392 -1.01347 24.781
-0.184299 -1.00595 24.7872
-0.15314 -1.00513 24.7637
-0.12257 -1.00491 24.7404
-0.0921587 -1.00509 24.7248
-0.0617871 -1.00528 24.7091
-0.0325527 -1.00687 24.6976
-0.00185683 -1.00601 24.6678
0.0309504 -1.00407 24.6688
0.0634679 -1.00256 24.6723
0.0934286 -1.00347 24.666
0.122525 -1.00507 24.6545
0.156186 -1.00319 24.6762
0.186232 -1.0052 24.694
0.215758 -1.00668 24.6894
0.247812 -1.00707 24.7173
0.280255 -1.00618 24.7287
0.309946 -1.00952 24.7597
0.341849 -1.00886 24.7629
0.370863 -1.01499 24.8258
0.403715 -1.02189 24.9687
0.439079 -1.01628 24.9503
0.46977 -1.01939 24.9869
0.501161 -1.01717 24.9518
0.531405 -1.0169 24.9282
0.561368 -1.01929 24.9402
0.594811 -1.01843 24.9613
0.625292 -1.01899 24.9544
0.659972 -1.02238 25.0524
0.693024 -1.02253 25.0779
0.72321 -1.02353 25.0706
0.753703 -1.02406 25.0619
0.787192 -1.02284 25.0744
0.820743 -1.02445 25.123
0.853122 -1.02704 25.1658
0.88564 -1.03003 25.2136
0.918461 -1.03501 25.2877
0.955075 -1.03557 25.358
0.987074 -1.03968 25.4065
1.02152 -1.04451 25.493
1.05619 -1.04938 25.5799
-0.246162 -0.975008 24.8134
-0.220026 -0.97941 24.7729
-0.185478 -0.975419 24.7672
-0.153457 -0.973927 24.7523
-0.121826 -0.973 24.742
-0.0925248 -0.974596 24.7306
-0.0617131 -0.973776 24.7007
-0.0321559 -0.974737 24.6826
-0.00180754 -0.974558 24.6595
0.0316111 -0.972294 24.6694
0.0627448 -0.972552 24.678
0.0930932 -0.973042 24.672
0.122195 -0.97466 24.6605
0.154045 -0.974066 24.6674
0.185744 -0.974085 24.683
0.216053 -0.974592 24.6768
0.247774 -0.974543 24.6903
0.279038 -0.975021 24.7035
0.308953 -0.975961 24.697
0.339601 -0.976891 24.7051
0.372439 -0.976415 24.7308
0.400229 -0.982923 24.7776
0.436099 -0.987308 24.9362
0.468749 -0.986721 24.9498
0.499426 -0.984516 24.9026
0.531369 -0.983905 24.9038
0.562417 -0.983486 24.8927
0.591498 -0.985175 24.8805
0.624331 -0.984399 24.8941
0.654163 -0.98995 24.9487
0.687531 -0.991652 25.0029
0.721613 -0.993786 25.0719
0.75217 -0.994376 25.0648
0.786006 -0.993377 25.0855
0.818435 -0.992886 25.0918
0.85295 -0.993022 25.1351
0.885254 -0.996746 25.1905
0.918525 -1.00102 25.2638
0.952555 -1.00267 25.3136
0.992624 -1.00457 25.4447
1.02693 -1.00847 25.5194
1.06164 -1.01322 25.6065
-0.252354 -0.949977 24.787
-0.218306 -0.946767 24.7877
-0.184646 -0.943304 24.7663
-0.15382 -0.943438 24.7597
-0.121724 -0.94147 24.7336
-0.0920826 -0.942449 24.7155
-0.0605338 -0.940905 24.6881
-0.03133 -0.942519 24.6768
-0.00215352 -0.944138 24.6654
0.0301852 -0.94325 24.6795
0.0624323 -0.942157 24.6856
0.0927623 -0.942613 24.6779
0.122036 -0.943739 24.6593
0.15286 -0.943218 24.6437
0.184968 -0.943007 24.6649
0.216804 -0.942396 24.6711
0.246356 -0.943731 24.6649
0.275812 -0.94498 24.6552
0.309228 -0.942617 24.6613
0.339639 -0.943056 24.657
0.369854 -0.94601 24.6932
0.403077 -0.949857 24.8009
0.433967 -0.954047 24.8649
0.467508 -0.95221 24.8768
0.497697 -0.951989 24.8534
0.527165 -0.954014 24.8534
0.557672 -0.954133 24.8421
0.591656 -0.951571 24.8498
0.621513 -0.953152 24.8498
0.651855 -0.955022 24.8616
0.685953 -0.956724 24.9303
0.720488 -0.9588 25.0081
0.752769 -0.961705 25.0598
0.784629 -0.962791 25.079
0.818224 -0.961987 25.0986
0.850454 -0.962644 25.1163
0.882724 -0.966309 25.1717
0.922969 -0.964745 25.2717
0.957035 -0.969295 25.3578
0.989811 -0.973021 25.4137
1.02506 -0.977377 25.5079
1.05974 -0.982032 25.595
-0.253462 -0.920298 24.7959
-0.215551 -0.912519 24.7878
-0.186148 -0.914137 24.7764
-0.154005 -0.912146 24.7482
-0.121618 -0.909961 24.7251
-0.091232 -0.910201 24.7095
-0.0619888 -0.911828 24.6982
-0.0316764 -0.912078 24.6826
-0.00229364 -0.913214 24.6641
0.0313159 -0.910435 24.6669
0.0634859 -0.90923 24.669
0.0930864 -0.910555 24.663
0.123279 -0.910448 24.6399
0.152323 -0.912097 24.6284
0.185961 -0.910142 24.6502
0.217047 -0.910343 24.6564
0.246056 -0.912004 24.6448
0.276077 -0.912286 24.6291
0.307901 -0.9117 24.6359
0.339627 -0.911706 24.6514
0.371368 -0.913736 24.7026
0.4014 -0.916414 24.7293
0.433756 -0.916201 24.7497
0.464037 -0.918208 24.7673
0.493784 -0.920537 24.7795
0.527574 -0.917192 24.7731
0.55833 -0.918267 24.7827
0.587705 -0.920296 24.7827
0.618607 -0.921101 24.7901
0.652692 -0.918368 24.7979
0.683465 -0.921358 24.8339
0.716706 -0.928524 24.966
0.752667 -0.929167 25.0455
0.784418 -0.930561 25.0677
0.818878 -0.927614 25.0725
0.84796 -0.932321 25.0974
0.887969 -0.930623 25.1971
0.92041 -0.934232 25.2528
0.954442 -0.938681 25.3388
0.988691 -0.943167 25.4253
1.02316 -0.94769 25.5121
-0.253135 -0.887917 24.7638
-0.217061 -0.883319 24.7978
-0.185476 -0.882015 24.7685
-0.153205 -0.879922 24.7413
-0.121978 -0.879452 24.7309
-0.0926952 -0.881092 24.7196
-0.0623369 -0.881358 24.704
-0.0316004 -0.88065 24.6742
-0.000940759 -0.879942 24.6444
0.0321313 -0.87826 24.6611
0.0635592 -0.877872 24.6631
0.0938827 -0.878386 24.6572
0.122961 -0.880047 24.6458
0.152011 -0.881711 24.6343
0.184909 -0.880532 24.6554
0.217796 -0.878552 24.6581
0.246805 -0.880228 24.6466
0.277072 -0.879555 24.6168
0.306577 -0.880953 24.6123
0.336827 -0.883306 24.6419
0.368749 -0.883425 24.6633
0.401331 -0.882662 24.6812
0.432472 -0.882889 24.6871
0.46096 -0.886174 24.694
0.494306 -0.883924 24.6993
0.524965 -0.884978 24.709
0.554662 -0.887294 24.7211
0.585066 -0.887785 24.7166
0.619049 -0.885041 24.7244
0.648794 -0.887372 24.7364
0.681923 -0.886858 24.7619
0.713646 -0.890003 24.816
0.745062 -0.898709 24.9409
0.786066 -0.897825 25.078
0.818673 -0.896724 25.0793
0.853166 -0.896703 25.1227
0.885446 -0.900225 25.1782
0.917853 -0.903775 25.2339
0.953314 -0.908902 25.3502
0.991777 -0.910708 25.4636
1.0263 -0.915132 25.5507
-0.253863 -0.857707 24.7674
-0.216371 -0.851184 24.7898
-0.184445 -0.849432 24.7575
-0.153948 -0.849814 24.7468
-0.122332 -0.848938 24.7366
-0.0928171 -0.850112 24.7182
-0.0619004 -0.84931 24.6888
-0.031521 -0.849242 24.6657
-0.00127429 -0.84953 24.6502
0.0310375 -0.848593 24.6644
0.0621545 -0.848811 24.6732
0.0924889 -0.849333 24.6672
0.121579 -0.85101 24.6558
0.150641 -0.85269 24.6444
0.184558 -0.850342 24.6652
0.217778 -0.847171 24.6499
0.248085 -0.846529 24.6202
0.277031 -0.84822 24.6087
0.307176 -0.848733 24.601
0.336683 -0.85266 24.6459
0.369252 -0.85109 24.6498
0.398718 -0.852469 24.6435
0.431107 -0.851544 24.6549
0.462938 -0.850169 24.6472
0.492165 -0.852172 24.6474
0.521392 -0.854178 24.6476
0.55534 -0.851755 24.662
0.5856 -0.851913 24.651
0.615486 -0.854375 24.6697
0.649476 -0.851951 24.6834
0.679304 -0.854834 24.706
0.712018 -0.856018 24.75
0.746295 -0.865886 24.9411
0.784376 -0.868026 25.0766
0.81751 -0.867219 25.0902
0.850681 -0.866419 25.1038
