0.734924 -1.48429 24.3537
0.76653 -1.48467 24.3679
0.799457 -1.48328 24.3788
0.83076 -1.48415 24.3938
0.86276 -1.48939 24.4589
0.900804 -1.51376 24.7727
0.937707 -1.51136 24.8104
0.969948 -1.51179 24.8246
1.00259 -1.51461 24.8648
1.03533 -1.51743 24.905
1.06874 -1.52047 24.9528
1.10493 -1.52968 25.0824
1.13727 -1.53512 25.1374
1.16944 -1.5373 25.161
0.0667492 -1.49084 25.0571
0.0959423 -1.49108 25.0204
0.136675 -1.47876 24.989
0.160018 -1.48565 24.958
0.348848 -1.46696 24.717
0.378535 -1.4695 24.7288
0.407563 -1.4709 24.7168
0.438692 -1.47572 24.7763
0.55478 -1.46025 24.4843
0.585592 -1.45766 24.4544
0.617477 -1.45317 24.4174
0.646995 -1.4525 24.3947
0.676816 -1.45292 24.3881
0.707758 -1.45339 24.3956
0.73813 -1.45384 24.396
0.767154 -1.45529 24.3912
0.800411 -1.45421 24.4088
0.832252 -1.45535 24.4324
0.861958 -1.46112 24.4777
0.901346 -1.48364 24.7915
0.937303 -1.48223 24.8289
0.970209 -1.48174 24.8415
1.00189 -1.48359 24.8627
1.0362 -1.48749 24.9296
1.07394 -1.49041 25.0211
1.10459 -1.49914 25.0908
1.14428 -1.5017 25.1941
1.17312 -1.50551 25.199
0.0972322 -1.45989 25.0502
0.16529 -1.4524 25.0206
0.225677 -1.44892 24.9285
0.290438 -1.44171 24.8592
0.408715 -1.44602 24.8155
0.439363 -1.4468 24.8166
0.467395 -1.44962 24.807
0.523373 -1.43522 24.5486
0.55493 -1.43002 24.4958
0.584603 -1.42936 24.4729
0.616222 -1.42456 24.4282
0.647634 -1.42292 24.4177
0.678043 -1.42337 24.4182
0.709015 -1.42383 24.4257
0.738842 -1.42426 24.4191
0.770483 -1.42386 24.4249
0.802101 -1.42473 24.4437
0.836084 -1.42585 24.4911
0.871353 -1.45316 24.8155
0.904133 -1.45157 24.8165
0.936899 -1.45306 24.8473
0.970475 -1.45166 24.8583
1.00264 -1.45275 24.8774
1.03586 -1.45821 24.9482
1.06942 -1.461 24.996
1.11038 -1.46522 25.1314
1.14449 -1.47103 25.2083
0.0995791 -1.42837 25.0945
0.129188 -1.4298 25.0822
0.163825 -1.42309 25.0318
0.192997 -1.42379 25.0033
0.2274 -1.41713 24.9532
0.284524 -1.41697 24.8616
0.319413 -1.41191 24.8469
0.347952 -1.41547 24.8535
0.377768 -1.41479 24.8227
0.409385 -1.4163 24.8473
0.442136 -1.41571 24.8605
0.494349 -1.40363 24.5687
0.522081 -1.40645 24.5594
0.553651 -1.40131 24.5066
0.583338 -1.40068 24.4837
0.61497 -1.39592 24.4389
0.648276 -1.39329 24.4408
0.67927 -1.39375 24.4484
0.709134 -1.39419 24.4417
0.738981 -1.39463 24.4351
0.770321 -1.39545 24.4503
0.802237 -1.39684 24.478
0.83688 -1.39614 24.5144
0.87109 -1.42223 24.8179
0.905902 -1.42154 24.8509
0.937678 -1.42312 24.8717
0.971289 -1.42171 24.8827
1.00363 -1.4221 24.897
1.03444 -1.42795 24.9464
1.07043 -1.43076 25.0205
1.10201 -1.43451 25.0556
0.127713 -1.40043 25.0934
0.191874 -1.39522 25.0307
0.225968 -1.38789 24.9643
0.283694 -1.38551 24.8486
0.315129 -1.38592 24.8566
0.346574 -1.38635 24.8646
0.378088 -1.3853 24.8535
0.411808 -1.38163 24.8403
0.438984 -1.38762 24.8589
0.498252 -1.37071 24.6006
0.525583 -1.37252 24.5724
0.557087 -1.36847 24.5311
0.583928 -1.37095 24.5068
0.619324 -1.3642 24.4867
0.649474 -1.36361 24.471
0.679374 -1.36406 24.4644
0.709258 -1.36451 24.4577
0.73971 -1.36558 24.465
0.77057 -1.36707 24.4816
0.802712 -1.36981 24.5262
0.839607 -1.39354 24.8445
0.873843 -1.38985 24.8406
0.904741 -1.39245 24.8623
0.937926 -1.39298 24.8885
0.970912 -1.39245 24.9012
1.00533 -1.39089 24.9192
1.03332 -1.39876 24.9579
1.07255 -1.3986 25.039
1.10171 -1.40587 25.0818
0.281024 -1.35743 24.8542
0.315244 -1.35274 24.8337
0.34844 -1.35149 24.8462
0.378166 -1.35274 24.8395
0.409309 -1.3508 24.8114
0.493451 -1.34512 24.603
0.527762 -1.34047 24.5911
0.55923 -1.33728 24.5589
0.587395 -1.33809 24.5313
0.619944 -1.33444 24.5098
0.649861 -1.33422 24.4948
0.678456 -1.3357 24.4829
0.709956 -1.3354 24.4877
0.743259 -1.33454 24.5086
0.771237 -1.33943 24.5269
0.800793 -1.3427 24.5458
0.838425 -1.36445 24.8558
0.87468 -1.36181 24.8862
0.907487 -1.36195 24.9045
0.938181 -1.36279 24.9052
0.970536 -1.36315 24.9197
1.00557 -1.36137 24.9423
1.0367 -1.36852 25.0085
1.06986 -1.36799 25.0212
1.10596 -1.37608 25.1461
0.161276 -1.33914 25.1638
0.283497 -1.32412 24.8669
0.319176 -1.3183 24.8532
0.349654 -1.31873 24.8465
0.378823 -1.32022 24.8345
0.407963 -1.32171 24.8224
0.489566 -1.32272 24.6589
0.52841 -1.30935 24.6005
0.558227 -1.3088 24.5775
0.58669 -1.30997 24.5578
0.617692 -1.30772 24.5316
0.647337 -1.30719 24.5087
0.680151 -1.30517 24.5104
0.711032 -1.30662 24.5271
0.740781 -1.30749 24.5226
0.773068 -1.31137 24.5829
0.810744 -1.3317 24.8868
0.844408 -1.3318 24.9157
0.877756 -1.33158 24.9366
0.90671 -1.33312 24.9239
0.939727 -1.33256 24.9367
0.972761 -1.33201 24.9495
1.00583 -1.33146 24.9623
1.03901 -1.33728 25.0387
1.07156 -1.33764 25.0531
1.11224 -1.34072 25.1804
0.255291 -1.29233 24.9152
0.284945 -1.29211 24.8826
0.319073 -1.28809 24.8696
0.348285 -1.28959 24.8575
0.377467 -1.29109 24.8454
0.406619 -1.2926 24.8333
0.495113 -1.28508 24.6566
0.527125 -1.28049 24.6113
0.556956 -1.27997 24.5883
0.58571 -1.28148 24.5764
0.616446 -1.27894 24.5423
0.64986 -1.27689 24.5512
0.681185 -1.27632 24.5498
0.710004 -1.27922 24.5564
0.744127 -1.28021 24.6085
0.771773 -1.28311 24.599
0.812907 -1.30177 24.931
0.847589 -1.3008 24.9606
0.876586 -1.30236 24.9479
0.908877 -1.30195 24.9537
0.941272 -1.30226 24.9683
0.975002 -1.3008 24.9794
1.00741 -1.30164 24.9986
1.03868 -1.3078 25.0574
1.07662 -1.30819 25.1316
1.11048 -1.31073 25.18
0.160672 -1.27568 25.1546
0.192738 -1.27306 25.119
0.413131 -1.26003 24.9195
0.493818 -1.25615 24.6674
0.527365 -1.25014 24.625
0.555957 -1.25142 24.6069
0.585774 -1.25158 24.5924
0.617946 -1.24998 24.589
0.651427 -1.24733 24.591
0.680125 -1.24887 24.5791
0.708306 -1.25289 24.59
0.740083 -1.25364 24.6091
0.779721 -1.26043 24.7969
0.809343 -1.26975 24.881
0.843632 -1.27154 24.9365
0.878092 -1.26977 24.9554
0.912535 -1.27035 24.9978
0.942939 -1.27088 24.9905
0.975397 -1.27119 25.0051
1.00691 -1.27284 25.0221
1.03757 -1.27845 25.0689
1.07537 -1.27671 25.1212
1.1051 -1.28342 25.1658
0.159441 -1.24356 25.125
0.195096 -1.23686 25.088
0.225863 -1.23724 25.0796
0.40666 -1.23801 24.9519
0.470105 -1.22032 24.7167
0.492777 -1.2275 24.686
0.526085 -1.22124 24.6358
0.558113 -1.22003 24.6348
0.58692 -1.22158 24.6228
0.617565 -1.22202 24.6234
0.649201 -1.22047 24.6129
0.678389 -1.22247 24.6127
0.710175 -1.2232 24.632
0.742054 -1.22275 24.6381
0.776494 -1.22951 24.7603
0.816449 -1.2352 24.937
0.848896 -1.23412 24.938
0.8801 -1.23758 24.9737
0.910692 -1.24049 24.9947
0.947203 -1.23931 25.0425
0.97764 -1.23985 25.0351
1.0067 -1.24367 25.0459
1.04278 -1.24576 25.1192
1.07676 -1.24515 25.1395
0.161859 -1.20906 25.1237
0.194733 -1.20597 25.0947
0.224271 -1.20752 25.0825
0.253779 -1.20907 25.0702
0.283258 -1.21062 25.0579
0.312707 -1.21218 25.0456
0.342127 -1.21374 25.0332
0.374894 -1.20921 24.9866
0.407542 -1.2047 24.94
0.46929 -1.19189 24.7434
0.498827 -1.19087 24.7043
0.529841 -1.18843 24.67
0.558697 -1.18999 24.6581
0.588065 -1.1915 24.6534
0.618196 -1.192 24.6467
0.648421 -1.19201 24.6355
0.680214 -1.19271 24.6548
0.712118 -1.19225 24.661
0.74598 -1.19415 24.7211
0.776106 -1.19738 24.7458
0.808534 -1.19941 24.7856
0.838883 -1.20692 24.8596
0.875589 -1.20557 24.9126
0.913767 -1.20578 24.9989
0.945682 -1.2021 24.9642
0.983887 -1.20747 25.1024
1.01437 -1.21038 25.1197
1.04378 -1.2152 25.1437
1.0771 -1.2146 25.1567
0.163722 -1.17495 25.118
0.193303 -1.17651 25.1058
0.222854 -1.17808 25.0935
0.252376 -1.17965 25.0812
0.285352 -1.17892 25.095
0.318351 -1.17819 25.1087
0.373373 -1.17614 24.9373
0.410652 -1.16739 24.9054
0.468475 -1.1634 24.7702
0.49936 -1.16071 24.7277
0.530664 -1.1586 24.7013
0.559282 -1.15989 24.6814
0.588133 -1.16147 24.6694
0.616956 -1.16305 24.6574
0.649533 -1.16237 24.6706
0.68079 -1.16278 24.6785
0.715241 -1.16146 24.7088
0.746454 -1.16178 24.7142
0.77523 -1.16339 24.7021
0.808196 -1.16461 24.7408
0.840039 -1.16989 24.8104
0.876484 -1.17252 24.9066
0.906283 -1.17483 24.9127
0.951028 -1.17229 25.0496
0.983693 -1.17658 25.1097
0.191876 -1.14704 25.1167
0.221441 -1.14862 25.1045
0.256874 -1.14395 25.0978
0.286165 -1.14823 25.1266
0.36909 -1.14676 24.8949
0.409083 -1.13651 24.8874
0.437147 -1.13484 24.8082
0.465919 -1.13545 24.7771
0.498072 -1.13167 24.7384
0.528128 -1.13072 24.7082
0.558019 -1.1309 24.6921
0.588208 -1.13141 24.6854
0.621338 -1.129 24.6839
0.652478 -1.12889 24.6835
0.68273 -1.12945 24.6789
0.712121 -1.13078 24.6721
0.744159 -1.13084 24.6862
0.77596 -1.13155 24.7046
0.808219 -1.13271 24.7337
0.839118 -1.136 24.7691
0.870103 -1.13931 24.8045
0.904635 -1.14087 24.864
0.939899 -1.14095 24.9145
1.01451 -1.19667 26.056
1.04567 -1.19373 26.0047
0.348836 -1.10486 24.927
0.368933 -1.11412 24.8731
0.404506 -1.10804 24.8536
0.436579 -1.10332 24.7956
0.467589 -1.10167 24.7677
0.497914 -1.10008 24.7308
0.527854 -1.10027 24.7147
0.557752 -1.10048 24.6985
0.588104 -1.09997 24.6803
0.618812 -1.09919 24.6643
0.651513 -1.09696 24.6594
0.682659 -1.09726 24.6649
0.711415 -1.09889 24.6529
0.744843 -1.09746 24.6685
0.775203 -1.09961 24.6854
0.805254 -1.10227 24.7036
0.838185 -1.10177 24.722
0.870688 -1.10443 24.7711
0.902924 -1.10584 24.8008
0.937014 -1.11048 24.8895
1.04619 -1.15985 26.0003
1.07868 -1.16249 26.0254
0.369024 -1.08118 24.8499
0.404179 -1.07581 24.8342
0.436289 -1.07277 24.802
0.46758 -1.06994 24.7604
0.497637 -1.0696 24.7373
0.528501 -1.068 24.7095
0.558617 -1.06701 24.6798
0.587499 -1.06809 24.6609
0.617579 -1.06857 24.6527
0.650513 -1.06736 24.6651
0.68242 -1.06687 24.6714
0.711182 -1.06851 24.6594
0.74185 -1.06897 24.66
0.773217 -1.06922 24.6675
0.804187 -1.07015 24.6778
0.838328 -1.06843 24.6987
0.868566 -1.07192 24.7287
0.899628 -1.07447 24.7575
0.933201 -1.07664 24.8132
0.969559 -1.07765 24.8894
1.03774 -1.12646 25.8885
1.07884 -1.12413 25.9685
1.11325 -1.12697 26.0195
0.369944 -1.04807 24.8378
0.40486 -1.04339 24.8289
0.436159 -1.04113 24.7943
0.466358 -1.04029 24.764
0.498296 -1.03731 24.732
0.528477 -1.03635 24.7023
0.557409 -1.03745 24.6834
0.587245 -1.0377 24.6673
0.616059 -1.03934 24.6554
0.649347 -1.03782 24.6691
0.682184 -1.03646 24.6779
0.711785 -1.03631 24.6544
0.741132 -1.03768 24.6477
0.773834 -1.03704 24.6632
0.805717 -1.03653 24.6688
0.83611 -1.03865 24.6857
0.867399 -1.0404 24.7097
0.899604 -1.04151 24.7372
0.932227 -1.04328 24.7773
0.965577 -1.04492 24.8237
0.997111 -1.04834 24.8658
1.07309 -1.08914 25.8728
1.11084 -1.09442 25.9936
0.368908 -1.01493 24.7877
0.405547 -1.01098 24.8235
0.436033 -1.00952 24.7865
0.467092 -1.00837 24.7662
0.498285 -1.00564 24.7247
0.527267 -1.00677 24.7058
0.558145 -1.00563 24.6855
0.586994 -1.00729 24.6736
0.616855 -1.00651 24.6436
0.649425 -1.00523 24.65
0.681514 -1.00464 24.6585
0.711707 -1.00422 24.6403
0.740414 -1.00589 24.6284
0.773818 -1.00441 24.644
0.804606 -1.00511 24.6497
0.834088 -1.00777 24.6612
0.866667 -1.00826 24.6882
0.898834 -1.00887 24.7103
0.931035 -1.01113 24.7515
0.961572 -1.01397 24.7762
0.995951 -1.01664 24.8476
1.14339 -1.06411 26.019
0.373396 -0.981581 24.8384
0.403121 -0.979769 24.7791
0.43677 -0.977569 24.7886
0.468043 -0.97489 24.7471
0.497075 -0.976038 24.7282
0.528006 -0.974923 24.7079
0.557983 -0.97417 24.6778
0.587884 -0.973417 24.6478
0.616672 -0.975091 24.636
0.64952 -0.973182 24.6383
0.681403 -0.973277 24.6533
0.711484 -0.973846 24.6467
0.740197 -0.975533 24.6348
0.772078 -0.975032 24.6411
0.804016 -0.975146 24.6559
0.834051 -0.975731 24.6493
0.865958 -0.975775 24.6621
0.896996 -0.977736 24.6859
0.928973 -0.979825 24.7231
0.962459 -0.981149 24.7701
0.995733 -0.981381 24.8
1.02833 -0.984613 24.8545
1.15006 -1.02204 26.001
0.403148 -0.947438 24.7606
0.436866 -0.945354 24.7741
0.466832 -0.945258 24.7506
0.497817 -0.944164 24.7303
0.527858 -0.943444 24.7002
0.557824 -0.942724 24.6701
0.58764 -0.943025 24.6541
0.616434 -0.944714 24.6423
0.647122 -0.944319 24.6315
0.679342 -0.943884 24.6447
0.712098 -0.941698 24.6416
0.740802 -0.9434 24.6297
0.770106 -0.944798 24.623
0.802783 -0.9441 24.6386
0.834633 -0.943581 24.6443
0.865007 -0.945648 24.6612
0.896832 -0.946349 24.6809
0.929749 -0.946218 24.7046
0.961316 -0.947214 24.7229
0.99359 -0.950951 24.7821
1.0283 -0.951233 24.8311
1.06122 -0.950511 24.8442
1.09059 -0.952603 24.8437
1.12328 -0.956397 24.9031
1.15339 -0.958848 24.9144
0.433119 -0.914814 24.7137
0.468527 -0.911601 24.7409
0.498145 -0.911208 24.707
0.526788 -0.912696 24.6872
0.558571 -0.910924 24.6722
0.587399 -0.912626 24.6604
0.617075 -0.912579 24.637
0.646656 -0.913389 24.6256
0.678525 -0.912361 24.6251
0.711073 -0.910395 24.6222
0.740719 -0.911402 24.6155
0.770667 -0.911953 24.6074
0.80339 -0.911276 24.6247
0.834494 -0.911566 24.6302
0.862969 -0.914898 24.6366
0.895536 -0.915296 24.6637
0.927688 -0.915831 24.6859
0.959208 -0.9169 24.705
0.993602 -0.917697 24.7587
1.02641 -0.916953 24.7719
1.05698 -0.919675 24.7953
1.0896 -0.920651 24.8245
1.11938 -0.923423 24.8369
1.15301 -0.923024 24.862
1.18698 -0.925019 24.9162
0.461681 -0.885784 24.7011
0.494722 -0.88299 24.6915
0.527733 -0.880214 24.6819
0.557778 -0.879794 24.6574
0.587412 -0.880615 24.646
0.617069 -0.880592 24.6227
0.646782 -0.880938 24.6068
0.676823 -0.881527 24.6003
0.70867 -0.881573 24.6154
0.740511 -0.881044 24.6218
0.769174 -0.882779 24.6099
0.802437 -0.881707 24.6303
0.834304 -0.881193 24.6366
0.862927 -0.882939 24.6246
0.896091 -0.88246 24.6497
0.926492 -0.884505 24.6667
0.959094 -0.884356 24.6865
0.992406 -0.883893 24.7115
1.02462 -0.884691 24.736
1.05928 -0.88529 24.7895
1.09037 -0.888676 24.8271
1.11905 -0.890466 24.8147
1.15188 -0.890837 24.8389
1.18737 -0.89187 24.9024
0.439147 -0.847076 24.7363
0.464739 -0.851573 24.707
0.492486 -0.853477 24.6758
0.522833 -0.852607 24.6484
0.556796 -0.849157 24.6464
0.586749 -0.849629 24.6353
0.617823 -0.848853 24.6247
0.646561 -0.850589 24.613
0.676222 -0.851605 24.6063
0.709321 -0.849509 24.6108
0.741127 -0.848957 24.6166
0.769782 -0.850706 24.6047
0.800946 -0.850606 24.6065
0.833401 -0.850219 24.6241
0.863615 -0.85024 24.613
0.896206 -0.849444 24.6263
0.928816 -0.848653 24.6395
0.959145 -0.851282 24.6631
0.992427 -0.850789 24.6881
1.02457 -0.85199 24.7172
1.0546 -0.856686 24.7589
1.08809 -0.856215 24.784
1.11874 -0.858284 24.8008
1.1484 -0.861169 24.8135
1.19183 -0.856626 24.9159
0.46817 -0.818005 24.7316
0.523179 -0.820034 24.629
0.554506 -0.81874 24.6139
0.585522 -0.818604 24.6128
0.617826 -0.816929 24.6103
0.646545 -0.818679 24.5986
0.675236 -0.820431 24.5868
0.708802 -0.817297 24.5844
0.740091 -0.817766 24.5972
0.769692 -0.818801 24.5905
0.801564 -0.818354 24.599
0.833785 -0.817879 24.6122
0.864306 -0.817564 24.6013
0.894249 -0.818197 24.5948
0.928088 -0.817089 24.6226
0.957102 -0.819095 24.62
0.988516 -0.821908 24.6613
1.02136 -0.822365 24.692
1.05491 -0.82223 24.7241
1.08482 -0.826077 24.7536
1.11927 -0.825979 24.796
1.15253 -0.82598 24.8225
1.18633 -0.829286 24.8924
0.434622 -0.792609 24.7876
0.466904 -0.788858 24.7419
0.498318 -0.784622 24.6725
0.526515 -0.785954 24.6402
0.554396 -0.787122 24.6014
0.586678 -0.785436 24.5983
0.618482 -0.784866 24.6049
0.647192 -0.78663 24.5932
0.676845 -0.787042 24.5774
0.70694 -0.786779 24.5595
0.739501 -0.785977 24.5753
0.771262 -0.785416 24.5812
0.800039 -0.788155 24.586
0.832248 -0.787666 24.5992
0.864132 -0.787218 24.6076
0.8927 -0.789011 24.5957
0.924346 -0.789543 24.6131
0.956945 -0.788725 24.6264
0.990182 -0.788173 24.6515
1.02056 -0.790769 24.675
1.051 -0.793368 24.6985
1.09019 -0.790855 24.7782
1.11824 -0.796778 24.8067
1.15196 -0.795693 24.827
1.18532 -0.799978 24.9033
0.467885 -0.755599 24.7226
0.497571 -0.755852 24.6987
0.528055 -0.75369 24.6486
0.558944 -0.751833 24.6146
0.586468 -0.755298 24.6082
0.619309 -0.752247 24.5929
0.648003 -0.754024 24.5812
0.676819 -0.755219 24.563
0.706283 -0.755319 24.5399
0.738079 -0.754841 24.5484
0.770782 -0.753391 24.5574
0.798963 -0.757061 24.5666
0.830724 -0.756503 24.5723
0.863348 -0.7557 24.5881
0.892543 -0.757164 24.5816
0.925013 -0.756913 24.6014
0.957517 -0.756665 24.6213
0.988515 -0.758873 24.6502
1.02118 -0.75805 24.6635
1.05331 -0.759152 24.6925
1.08478 -0.762542 24.7397
1.11815 -0.763649 24.7832
1.15014 -0.766757 24.8306
1.18228 -0.768845 24.8666
0.467639 -0.725092 24.7287
0.499853 -0.72103 24.6762
0.529709 -0.721463 24.6604
0.557723 -0.722802 24.6248
0.586566 -0.723782 24.6004
0.62014 -0.719652 24.5808
0.648817 -0.721442 24.5692
0.677465 -0.723236 24.5576
0.706085 -0.725033 24.5459
0.736024 -0.725668 24.5396
0.769641 -0.724431 24.5676
0.799576 -0.725075 24.5613
0.829495 -0.725723 24.5549
0.861342 -0.725703 24.5699
0.893133 -0.72516 24.5764
0.925683 -0.724305 24.5897
0.957326 -0.724803 24.6072
0.98505 -0.728894 24.6132
1.01632 -0.730192 24.6344
1.05284 -0.728142 24.6872
1.084 -0.730351 24.7161
1.11594 -0.733416 24.7651
1.14747 -0.736923 24.8121
1.18625 -0.738127 24.9268
0.424889 -0.716241 24.9105
0.466382 -0.695926 24.7389
0.499617 -0.690573 24.6822
0.528477 -0.692372 24.6705
0.556505 -0.693755 24.635
0.585283 -0.693512 24.5869
0.618945 -0.690651 24.591
0.647634 -0.692458 24.5793
0.676294 -0.694268 24.5677
0.704926 -0.696081 24.556
0.734875 -0.696725 24.5497
0.766674 -0.696672 24.5649
0.798448 -0.696106 24.5715
0.828379 -0.696763 24.5651
0.861231 -0.69559 24.5799
0.892038 -0.696175 24.5866
0.923859 -0.69563 24.5931
0.957178 -0.694438 24.6135
0.985692 -0.696288 24.6015
1.0198 -0.695965 24.6438
1.05117 -0.698817 24.6858
1.08454 -0.69819 24.7111
1.11268 -0.703548 24.7361
1.15291 -0.701544 24.8369
1.18818 -0.705581 24.9394
0.284998 -0.683414 25.3296
0.317636 -0.676755 25.1952
0.331532 -0.699314 25.247
0.405896 -0.671092 24.9128
0.465129 -0.666743 24.749
0.498377 -0.661448 24.6923
0.528952 -0.660176 24.658
0.553692 -0.663908 24.5973
0.585314 -0.662574 24.5873
0.617753 -0.661634 24.6011
0.647432 -0.662121 24.5853
0.676097 -0.663947 24.5737
0.705571 -0.664136 24.5505
0.734301 -0.665405 24.5323
0.767704 -0.663804 24.5523
0.79931 -0.663018 24.553
0.828262 -0.665621 24.5596
0.861734 -0.663169 24.5663
0.892731 -0.663631 24.5748
0.921808 -0.665685 24.5748
0.954714 -0.666582 24.6184
0.984632 -0.667269 24.6118
1.01726 -0.666397 24.6252
1.0556 -0.663288 24.693
1.08351 -0.669049 24.7216
1.11697 -0.668401 24.7468
1.15025 -0.67175 24.8182
1.18657 -0.673958 24.9149
0.284342 -0.648812 25.2413
0.317179 -0.645068 25.1816
0.347448 -0.641318 25.0579
0.407848 -0.634966 24.8555
0.43488 -0.635712 24.7709
0.466262 -0.633455 24.7299
0.496891 -0.632188 24.6944
0.523709 -0.633059 24.6189
0.551953 -0.63464 24.5914
0.585352 -0.631649 24.5876
0.618169 -0.628911 24.577
0.64744 -0.630375 24.5707
0.676087 -0.632213 24.5591
0.705542 -0.632426 24.536
0.735078 -0.632936 24.5203
0.767496 -0.632005 24.534
0.799933 -0.63108 24.5476
0.829832 -0.631752 24.5413
0.861657 -0.631677 24.5564
0.893428 -0.631111 24.563
0.925232 -0.630994 24.576
0.956189 -0.632642 24.6001
0.984495 -0.636899 24.618
1.01697 -0.637003 24.6426
1.05381 -0.633346 24.6814
1.08412 -0.636351 24.7099
1.11529 -0.639019 24.7454
1.14759 -0.642011 24.7996
1.18919 -0.641992 24.9441
0.253601 -0.616619 25.2572
0.285369 -0.61546 25.2285
0.317304 -0.608829 25.0702
0.346504 -0.610576 25.0499
0.375796 -0.607655 24.9248
0.405243 -0.604967 24.817
0.435825 -0.602971 24.7584
0.466982 -0.601305 24.7242
0.521721 -0.60366 24.6049
0.550482 -0.605502 24.5934
0.582597 -0.602954 24.5707
0.617573 -0.597985 24.5639
0.64678 -0.599618 24.5597
0.676747 -0.600277 24.5535
0.705357 -0.602133 24.5419
0.733938 -0.603992 24.5303
0.767061 -0.602691 24.551
0.798814 -0.602102 24.5577
0.827357 -0.603974 24.546
0.860559 -0.60269 24.5666
0.89234 -0.602116 24.5731
0.922231 -0.60281 24.5667
0.954125 -0.602734 24.5818
0.985012 -0.603506 24.5924
1.01576 -0.606455 24.63
1.05199 -0.60457 24.6847
1.08472 -0.603677 24.6982
1.11362 -0.609648 24.7439
1.15304 -0.60657 24.8242
1.1887 -0.611652 24.9505
0.253108 -0.585055 25.2455
0.282868 -0.583096 25.1347
0.315986 -0.579248 25.0806
0.344417 -0.578282 24.9706
0.402288 -0.576709 24.807
0.436775 -0.570257 24.7459
0.466467 -0.57023 24.7109
0.492445 -0.573059 24.6504
0.520507 -0.574611 24.6149
0.551364 -0.573003 24.5811
0.583453 -0.57019 24.5527
0.614525 -0.570401 24.5612
0.645609 -0.570617 24.5697
0.675587 -0.571284 24.5635
0.704209 -0.573156 24.5519
0.733762 -0.573709 24.5362
0.764744 -0.573912 24.5422
0.798649 -0.571786 24.5636
0.827198 -0.573673 24.5519
0.858205 -0.573891 24.5578
0.891255 -0.573105 24.5832
0.921157 -0.573807 24.5768
0.953062 -0.573714 24.592
0.984881 -0.573147 24.5985
1.01809 -0.572387 24.6238
1.04908 -0.574953 24.6594
1.08228 -0.575725 24.7031
1.11808 -0.574021 24.7512
1.15039 -0.576871 24.8055
1.18739 -0.578506 24.9096
0.248714 -0.556527 25.193
0.286397 -0.546017 25.0913
0.344208 -0.546389 24.9502
0.372957 -0.544213 24.8245
0.404284 -0.542625 24.7902
0.43628 -0.539176 24.7325
0.461881 -0.541898 24.6558
0.490483 -0.543675 24.6363
0.521409 -0.542103 24.6025
0.55225 -0.540528 24.5687
0.580948 -0.5424 24.5572
0.613347 -0.541393 24.5711
0.645478 -0.5403 24.5771
0.675403 -0.540957 24.5693
0.704029 -0.542844 24.5577
0.733589 -0.542615 24.5281
0.766407 -0.541748 24.5514
0.798452 -0.540659 24.5556
0.827886 -0.540438 24.526
0.860024 -0.542863 24.5877
0.891109 -0.542757 24.5893
0.921029 -0.542694 24.5714
0.953921 -0.543381 24.6151
0.98383 -0.544101 24.6087
1.01644 -0.543165 24.6222
1.05355 -0.539984 24.6745
1.08268 -0.545354 24.7189
1.11546 -0.544435 24.7324
1.14939 -0.547593 24.816
1.18292 -0.548731 24.8647
0.220008 -0.521299 25.1838
0.251994 -0.519716 25.1484
0.313374 -0.515566 24.979
0.373949 -0.511461 24.8118
0.406749 -0.507628 24.7624
0.460412 -0.512693 24.6577
0.491206 -0.511682 24.6304
0.522316 -0.509621 24.59
0.551053 -0.511505 24.5785
0.579763 -0.513393 24.567
0.613295 -0.509423 24.5477
0.645259 -0.508885 24.5616
0.675407 -0.509315 24.5546
0.704853 -0.50964 24.5316
0.734701 -0.510313 24.5239
0.767278 -0.509356 24.5417
0.79921 -0.508237 24.5435
0.827733 -0.51015 24.5319
0.858414 -0.511897 24.5571
0.891736 -0.509509 24.5633
0.920226 -0.511437 24.5516
0.953557 -0.511419 24.5933
0.984419 -0.512144 24.6033
1.01541 -0.514086 24.6324
1.05222 -0.510238 24.6714
1.08257 -0.514845 24.7252
1.11446 -0.515231 24.7428
1.14674 -0.517965 24.7971
1.18548 -0.518196 24.9123
0.218663 -0.491574 25.1941
0.255038 -0.483576 25.1119
0.316319 -0.479665 24.9429
0.341871 -0.483881 24.8807
0.374945 -0.478736 24.7991
0.407812 -0.473626 24.7179
0.430519 -0.48174 24.6871
0.460194 -0.482249 24.6634
0.491329 -0.479983 24.6154
0.521111 -0.480566 24.5998
0.54986 -0.482466 24.5883
0.58064 -0.480982 24.5546
0.615065 -0.476554 24.5464
0.646125 -0.476738 24.555
0.676081 -0.477428 24.5489
0.70468 -0.479341 24.5374
0.734598 -0.480039 24.5313
0.768187 -0.478528 24.5597
0.798102 -0.479235 24.5535
0.826635 -0.481165 24.5419
0.859105 -0.480167 24.5556
0.891595 -0.479174 24.5693
0.921477 -0.4799 24.563
0.95336 -0.479751 24.5782
0.985159 -0.47916 24.5848
1.01376 -0.484872 24.6306
1.05119 -0.481092 24.6817
1.08391 -0.480133 24.6952
1.11345 -0.48601 24.7531
1.14897 -0.485551 24.8147
1.18733 -0.487801 24.9527
0.221107 -0.456284 25.162
0.279062 -0.458047 25.0341
0.339991 -0.454302 24.8662
0.373468 -0.44937 24.8009
0.398544 -0.454172 24.7471
0.429055 -0.452506 24.6889
0.460341 -0.450537 24.6483
0.491121 -0.449582 24.6211
0.519909 -0.451495 24.6096
0.550757 -0.450048 24.5759
0.582837 -0.447369 24.5476
0.616304 -0.445792 24.5763
0.646294 -0.446486 24.5703
0.674933 -0.448412 24.5588
0.703543 -0.450342 24.5472
0.735286 -0.449701 24.5541
0.76707 -0.449501 24.5696
0.796996 -0.450217 24.5634
0.825541 -0.452163 24.5517
0.85802 -0.451148 24.5655
0.890521 -0.450138 24.5793
0.922322 -0.449529 24.586
0.954227 -0.449363 24.6013
0.985517 -0.448881 24.6003
1.01418 -0.454186 24.6416
1.05017 -0.451929 24.6919
1.0829 -0.450953 24.7055
1.11179 -0.456665 24.7514
1.15121 -0.453098 24.8322
1.17936 -0.458694 24.8609
0.220839 -0.425231 25.1678
0.279858 -0.425592 25.028
0.341254 -0.421048 24.8466
0.375502 -0.415005 24.7727
0.399529 -0.421562 24.7344
0.427821 -0.423329 24.6986
0.461083 -0.418554 24.6423
0.48991 -0.42048 24.6308
0.520634 -0.419569 24.6037
0.551659 -0.417655 24.5634
0.583402 -0.416982 24.5704
0.616459 -0.415499 24.5916
0.645137 -0.417438 24.5801
0.673787 -0.41938 24.5686
0.702409 -0.421326 24.557
0.734161 -0.420677 24.5639
0.768265 -0.417924 24.5808
0.795892 -0.421183 24.5733
0.82873 -0.418647 24.5674
0.859529 -0.420348 24.5955
0.889448 -0.421086 24.5892
0.921996 -0.420066 24.603
0.954567 -0.41905 24.6167
0.987174 -0.418042 24.6304
1.01888 -0.418343 24.6482
1.04914 -0.42275 24.702
1.08609 -0.418757 24.7414
1.11568 -0.424509 24.7995
1.14938 -0.423125 24.8203
1.18702 -0.4233 24.9233
0.221658 -0.392622 25.1616
0.281176 -0.392148 25.0081
0.342036 -0.388831 24.8404
0.375691 -0.384112 24.7834
0.409202 -0.379426 24.7265
0.428031 -0.392539 24.7092
0.459864 -0.38942 24.652
0.488703 -0.391362 24.6405
0.521749 -0.38667 24.5845
0.550475 -0.388611 24.5731
0.582873 -0.387513 24.5872
0.615293 -0.38642 24.6013
0.645831 -0.385561 24.5742
0.674472 -0.387517 24.5627
0.703085 -0.389476 24.5512
0.734166 -0.38933 24.5535
0.766695 -0.387843 24.5614
0.796664 -0.388819 24.561
0.826632 -0.389801 24.5605
0.861104 -0.386644 24.5769
0.890172 -0.388701 24.5771
0.922704 -0.387666 24.5908
0.954446 -0.388649 24.6227
0.986134 -0.388922 24.6405
1.01877 -0.3879 24.6542
1.04812 -0.393554 24.7122
1.08508 -0.38951 24.7516
1.11813 -0.392574 24.8286
1.15457 -0.391479 24.8978
1.18742 -0.394008 24.9581
0.223035 -0.35904 25.1415
0.280058 -0.362625 25.0263
0.374435 -0.354803 24.7932
0.407958 -0.350174 24.7363
0.436227 -0.35203 24.7006
0.458883 -0.360305 24.6697
0.487498 -0.362228 24.6502
0.523577 -0.35494 24.6127
0.552964 -0.356474 24.6084
0.582346 -0.358011 24.604
0.616169 -0.354045 24.5888
0.645873 -0.35402 24.5593
0.675468 -0.354696 24.5437
0.704056 -0.356666 24.5323
0.732936 -0.35868 24.5287
0.767536 -0.355743 24.5548
0.79744 -0.35648 24.5487
0.825963 -0.358468 24.5372
0.85842 -0.357403 24.551
0.890898 -0.356341 24.5649
0.92077 -0.357097 24.5587
0.954019 -0.356355 24.5914
0.98364 -0.35964 24.6214
1.0225 -0.355746 24.7019
1.05269 -0.360019 24.7536
1.08486 -0.359825 24.769
1.11793 -0.362805 24.846
1.15358 -0.36205 24.9082
0.221708 -0.32932 25.1515
0.255876 -0.324658 25.0847
0.373182 -0.325479 24.803
0.406937 -0.32093 24.7542
0.435684 -0.322878 24.7346
0.464386 -0.324827 24.7151
0.497594 -0.320279 24.6586
0.525357 -0.323534 24.6497
0.555197 -0.324226 24.6358
0.585336 -0.324037 24.6094
0.617049 -0.321696 24.5763
0.645704 -0.323676 24.5649
0.674331 -0.325659 24.5534
0.70293 -0.327645 24.542
0.732847 -0.328381 24.5359
0.764605 -0.328105 24.5515
0.797297 -0.326155 24.5544
0.825826 -0.328157 24.5428
0.856036 -0.328257 24.5318
0.888458 -0.328537 24.5693
0.919264 -0.328013 24.559
0.950275 -0.328189 24.565
0.984585 -0.327263 24.6145
1.01746 -0.326232 24.6336
1.05206 -0.327596 24.7206
1.08728 -0.327862 24.7979
1.11906 -0.331876 24.8693
1.15531 -0.332803 24.9672
0.252452 -0.297145 25.0853
0.431497 -0.29633 24.7256
0.463171 -0.295588 24.7248
0.496638 -0.29111 24.6764
0.525474 -0.293099 24.6649
0.555279 -0.293807 24.6493
0.587198 -0.29062 24.5973
0.615892 -0.292612 24.5859
0.644559 -0.294607 24.5745
0.673197 -0.296607 24.5631
0.703616 -0.295848 24.5361
0.732317 -0.297382 24.5181
0.764385 -0.296248 24.5241
0.797251 -0.294683 24.5396
0.826546 -0.295215 24.5166
0.855014 -0.297232 24.5051
0.888924 -0.294883 24.5268
0.919141 -0.296532 24.5443
0.949239 -0.297126 24.5403
0.983162 -0.294793 24.5601
1.01496 -0.297008 24.6144
1.04466 -0.302475 24.6803
1.08886 -0.298668 24.8564
1.12446 -0.297748 24.9187
0.253432 -0.265312 25.1131
0.282904 -0.267334 25.1012
0.433235 -0.264332 24.7541
0.46196 -0.266333 24.7345
0.495438 -0.261904 24.686
0.524285 -0.263909 24.6746
0.555389 -0.262248 24.6341
0.586033 -0.261504 24.607
0.614739 -0.263512 24.5956
0.644396 -0.264246 24.58
0.67405 -0.264334 24.5505
0.703632 -0.264418 24.5211
0.733137 -0.265155 24.5056
0.764822 -0.264467 24.5126
0.797914 -0.262891 24.5337
0.826415 -0.264919 24.5223
0.854888 -0.266951 24.5107
0.887318 -0.26584 24.5247
0.91977 -0.264732 24.5386
0.948206 -0.266777 24.527
0.980691 -0.265683 24.5409
1.01228 -0.265873 24.5587
1.04318 -0.269504 24.6196
1.1192 -0.271453 24.9029
0.281612 -0.237644 25.1112
0.460987 -0.237058 24.7522
0.494242 -0.232683 24.6957
0.5231 -0.234704 24.6842
0.556127 -0.230353 24.628
0.584871 -0.232373 24.6166
0.613588 -0.234397 24.6052
0.644453 -0.232792 24.5649
0.674907 -0.232089 24.538
0.703483 -0.234115 24.5266
0.732031 -0.236146 24.5152
0.760551 -0.23818 24.5037
0.794746 -0.234434 24.5063
0.82719 -0.232716 24.5099
0.855646 -0.23476 24.4984
0.884074 -0.236807 24.4869
0.917486 -0.234891 24.5072
0.948915 -0.234564 24.5148
0.977306 -0.236625 24.5032
1.00983 -0.235785 24.5228
1.04536 -0.234428 24.5902
1.07667 -0.236533 24.6327
0.28726 -0.201298 25.1748
0.34325 -0.205663 25.0262
0.493782 -0.203403 24.7295
0.523632 -0.20278 24.6711
0.554956 -0.201191 24.6376
0.583712 -0.203227 24.6262
0.614482 -0.202113 24.5925
0.645167 -0.200993 24.5589
0.673782 -0.203032 24.5475
0.702369 -0.205075 24.5361
0.732858 -0.203971 24.5027
0.761494 -0.20557 24.4847
0.793911 -0.203297 24.4766
0.827968 -0.200539 24.4974
0.856407 -0.202595 24.486
0.884819 -0.204654 24.4746
0.916479 -0.203974 24.4815
0.948242 -0.203654 24.4971
0.978002 -0.20445 24.491
1.00969 -0.203787 24.4978
1.04126 -0.205371 24.5406
1.07245 -0.20624 24.5623
1.10742 -0.206544 24.6437
0.251588 -0.175825 25.2436
0.285968 -0.171505 25.1848
0.553789 -0.172014 24.6471
0.582555 -0.174067 24.6357
0.61538 -0.169855 24.5797
0.644034 -0.171906 24.5684
0.672659 -0.173961 24.557
0.703216 -0.172894 24.5235
0.733689 -0.171822 24.4901
0.762175 -0.173879 24.4788
0.791988 -0.174656 24.4728
0.823687 -0.174293 24.4885
0.855348 -0.173593 24.4956
0.884707 -0.174408 24.4801
0.913841 -0.17506 24.4573
0.945611 -0.174719 24.4735
0.978703 -0.172321 24.4787
1.00703 -0.17441 24.4672
1.03718 -0.176426 24.4911
1.0728 -0.175176 24.5643
1.10472 -0.174077 24.5662
1.14107 -0.172819 24.6475
0.19231 -0.141417 25.3538
0.216225 -0.150137 25.3379
0.250287 -0.145956 25.2535
0.28468 -0.141696 25.1948
0.314222 -0.143793 25.1828
0.348375 -0.139557 25.1244
0.552887 -0.14279 24.6647
0.582394 -0.143627 24.6411
0.614238 -0.140737 24.5892
0.642903 -0.142804 24.5779
0.673683 -0.141344 24.5377
0.704068 -0.140739 24.5109
0.732592 -0.142809 24.4996
0.761089 -0.144883 24.4882
0.79131 -0.144292 24.4614
0.822785 -0.143487 24.4626
0.855587 -0.141522 24.4713
0.884624 -0.143136 24.4652
0.913739 -0.14381 24.4425
0.942067 -0.145901 24.4311
0.975345 -0.143478 24.441
1.00772 -0.142318 24.4549
1.03955 -0.142702 24.4845
1.07093 -0.143124 24.5046
1.10181 -0.145088 24.5404
1.1338 -0.147017 24.5946
0.191291 -0.111315 25.3809
0.24899 -0.116071 25.2634
0.283396 -0.111872 25.2047
0.312949 -0.113985 25.1927
0.354399 -0.102932 25.1964
0.583404 -0.110784 24.6141
0.613099 -0.111604 24.5987
0.642755 -0.112432 24.5832
0.674399 -0.109614 24.5316
0.702962 -0.111696 24.5203
0.731498 -0.113782 24.509
0.761911 -0.112798 24.4756
0.791288 -0.113063 24.4464
0.823847 -0.111087 24.4495
0.854916 -0.111043 24.4579
0.883908 -0.112788 24.4539
0.913639 -0.113594 24.4479
0.941972 -0.1157 24.4365
0.973588 -0.115003 24.4435
1.00532 -0.114635 24.459
1.03502 -0.115459 24.453
1.06821 -0.113809 24.4739
1.09926 -0.116142 24.5211
1.1334 -0.114859 24.564
1.16442 -0.116812 24.5998
0.191361 -0.0796467 25.3876
0.224358 -0.0772545 25.3145
0.248206 -0.0860024 25.2987
0.282114 -0.0820328 25.2145
0.311679 -0.084163 25.2026
0.347825 -0.0788052 25.1912
0.611963 -0.0824573 24.6081
0.643703 -0.0796977 24.5564
0.673285 -0.0805401 24.541
0.70186 -0.0826382 24.5297
0.732339 -0.0816919 24.4963
0.762736 -0.0807404 24.463
0.79117 -0.0828409 24.4517
0.819577 -0.0849451 24.4404
0.848308 -0.0870074 24.437
0.880994 -0.0853382 24.4503
0.913542 -0.0833739 24.4533
0.942612 -0.08411 24.4306
0.970908 -0.0862325 24.4192
1.0044 -0.0839816 24.4378
1.03569 -0.0834309 24.4407
1.06706 -0.0830793 24.4483
1.09891 -0.0841199 24.4904
1.133 -0.0827903 24.5333
1.16339 -0.0847484 24.5585
0.19157 -0.0476214 25.3787
0.22354 -0.0470729 25.35
0.257957 -0.0430972 25.2823
0.287787 -0.0451732 25.2788
0.317415 -0.0473233 25.2668
0.351673 -0.0432948 25.2079
0.379121 -0.0481255 25.2124
0.610829 -0.0532959 24.6175
0.643562 -0.0493419 24.5617
0.672175 -0.0514521 24.5504
0.702573 -0.0509493 24.5235
0.733185 -0.0496287 24.4836
0.761658 -0.0517413 24.4723
0.790104 -0.0538577 24.4611
0.819468 -0.0547346 24.4457
0.848626 -0.0554846 24.4231
0.880379 -0.0541922 24.422
0.91345 -0.052201 24.4384
0.943429 -0.0517149 24.4117
0.97078 -0.0550924 24.4044
1.00229 -0.0542718 24.4076
1.03638 -0.0514284 24.4284
1.06461 -0.0535754 24.417
1.09856 -0.0521864 24.4598
1.12883 -0.0540993 24.485
1.16565 -0.0524022 24.5754
1.19673 -0.0542693 24.6112
0.152715 -0.0250301 25.4876
0.192446 -0.0148872 25.3719
0.222235 -0.0170518 25.3599
0.256838 -0.0130671 25.3007
0.286506 -0.0152301 25.2887
0.316146 -0.0173972 25.2767
0.350416 -0.0134294 25.2178
0.379936 -0.0155949 25.2059
0.408764 -0.0179898 25.1688
0.642443 -0.0202236 24.571
0.671066 -0.0223498 24.5597
0.703587 -0.0184748 24.5042
0.732099 -0.0205994 24.4929
0.760583 -0.0227279 24.4816
0.790919 -0.0218646 24.4484
0.819438 -0.0235957 24.4306
0.848577 -0.0243668 24.408
0.879204 -0.0239452 24.3982
0.91273 -0.0219404 24.4269
0.942416 -0.0227691 24.4211
0.970698 -0.0249179 24.4097
1.00035 -0.0257555 24.4038
1.03303 -0.0242036 24.4192
1.06364 -0.0246251 24.4264
1.09603 -0.0234131 24.4404
1.12844 -0.022205 24.4544
1.15933 -0.024019 24.49
1.19527 -0.0223517 24.5633
0.129634 0.0165341 25.541
0.191133 0.0151662 25.3818
0.220934 0.0129845 25.3698
0.255549 0.0169081 25.3105
0.285229 0.0147281 25.2986
0.314881 0.0125439 25.2865
0.349767 0.0167151 25.253
0.378695 0.0142687 25.2157
0.408418 0.0121668 25.2122
0.669961 0.0067667 24.569
0.702493 0.0105845 24.5135
0.731016 0.00844401 24.5022
0.761552 0.00966144 24.4624
0.791738 0.0101018 24.4357
0.820122 0.00795912 24.4245
0.848478 0.00581259 24.4133
0.876806 0.00366225 24.402
0.909823 0.0054501 24.4232
0.943066 0.00876606 24.4151
0.971339 0.00660479 24.4038
0.998878 0.00309246 24.4037
1.03197 0.00607419 24.4
1.06431 0.00731367 24.4141
1.09351 0.00530472 24.421
1.12619 0.00658108 24.4402
1.15996 0.00801391 24.4778
1.19197 0.00640463 24.532
0.0667329 0.0494837 25.6175
0.0923949 0.0422027 25.5881
0.131299 0.0505396 25.4931
0.155371 0.0416486 25.4771
0.189823 0.0452346 25.3917
0.219636 0.0430357 25.3796
0.254263 0.0468984 25.3204
0.283955 0.0447013 25.3084
0.313618 0.0425 25.2964
0.347835 0.0455362 25.2823
0.3833 0.0499613 25.2741
0.669833 0.0371335 24.5742
0.701402 0.0396579 24.5227
0.729935 0.0375015 24.5114
0.762258 0.0412413 24.4562
0.79068 0.0390866 24.445
0.819074 0.0369281 24.4337
0.847441 0.0347657 24.4225
0.877476 0.0351626 24.3959
0.90834 0.0353318 24.3985
0.941971 0.0389283 24.3948
0.971222 0.0376573 24.3888
0.998742 0.0341431 24.3888
1.03092 0.0363111 24.3808
1.06499 0.0392265 24.4017
1.09317 0.0370369 24.3903
1.12712 0.0385754 24.4332
1.15738 0.0367495 24.4584
1.19425 0.0387644 24.5488
1.22533 0.0370219 24.5846
0.0348862 0.081708 25.6136
0.0635628 0.0778038 25.6004
0.0949631 0.0773328 25.4913
0.123818 0.073822 25.4818
0.156149 0.074512 25.4373
0.188517 0.0753179 25.4015
0.218342 0.0731018 25.3894
0.252981 0.0769035 25.3302
0.282685 0.0746893 25.3182
0.315287 0.0755529 25.326
0.348483 0.0772125 25.3234
0.383576 0.0814174 25.2983
0.411898 0.0778221 25.2821
0.700313 0.0687452 24.5319
0.730653 0.0691214 24.5051
0.761191 0.0702558 24.4654
0.789624 0.0680853 24.4542
0.819765 0.0684533 24.4275
0.848233 0.0666559 24.4098
0.87742 0.0661803 24.3808
0.909883 0.0681719 24.3841
0.941509 0.0686701 24.3998
0.971148 0.0678187 24.3941
0.99938 0.0656277 24.3828
1.03169 0.0669056 24.3969
1.06402 0.0681796 24.411
1.09222 0.065974 24.3996
1.12458 0.0672337 24.4137
1.15697 0.0684895 24.4277
1.18655 0.0649 24.4711
1.22483 0.0689175 24.5538
0.0265939 0.104085 25.5929
0.0623588 0.108346 25.5073
0.0934785 0.107388 25.4908
0.124909 0.106879 25.4592
0.15735 0.107645 25.4234
0.187215 0.105416 25.4113
0.222934 0.109859 25.4031
0.258096 0.113943 25.3694
0.287097 0.110666 25.3771
0.318121 0.109832 25.3709
0.347225 0.107238 25.3333
0.382338 0.11141 25.3082
0.413027 0.110448 25.2935
0.699227 0.0978462 24.5411
0.730688 0.100015 24.4967
0.760127 0.0992841 24.4745
0.789523 0.098319 24.4593
0.820697 0.100704 24.4083
0.849029 0.0985193 24.3971
0.877334 0.096331 24.386
0.906984 0.0954824 24.3802
0.938607 0.0960001 24.396
0.971078 0.097983 24.3993
0.998398 0.0945578 24.392
1.03011 0.0957033 24.3944
1.06319 0.0988376 24.3875
1.09288 0.0978228 24.3872
1.12299 0.0960541 24.4112
1.15604 0.0974777 24.4371
1.18916 0.0988927 24.4629
1.22221 0.0976888 24.5343
-0.0344257 0.139755 25.6277
-0.00314005 0.138588 25.5773
0.0298402 0.139543 25.5335
0.0636242 0.141529 25.4931
0.0950958 0.14099 25.4616
0.126134 0.140016 25.4452
0.156039 0.137775 25.4331
0.191386 0.14172 25.4317
0.224581 0.143317 25.4149
0.257333 0.144415 25.4049
0.287112 0.142163 25.3928
0.316862 0.139907 25.3807
0.346583 0.137647 25.3686
0.375643 0.135005 25.331
0.411154 0.139413 25.3229
0.729616 0.129084 24.5059
0.759066 0.128326 24.4836
0.790334 0.130652 24.4326
0.819657 0.129673 24.4174
0.848 0.127473 24.4062
0.876315 0.125269 24.395
0.906522 0.125201 24.3851
0.939302 0.127466 24.3905
0.971692 0.13025 24.3729
0.999188 0.12674 24.373
1.02807 0.124708 24.3752
1.06021 0.126705 24.3701
1.09355 0.129645 24.3748
1.12415 0.129021 24.3878
1.15601 0.129192 24.4129
1.18755 0.127764 24.4605
1.22281 0.129696 24.522
-0.0333287 0.172628 25.5871
0.00183795 0.17589 25.5341
0.0322462 0.173998 25.5149
0.064894 0.174682 25.4789
0.0948689 0.172432 25.4669
0.124815 0.170178 25.4549
0.15695 0.17049 25.4261
0.19015 0.172033 25.4147
0.226235 0.176803 25.4267
0.256055 0.174539 25.4147
0.285846 0.17227 25.4026
0.315608 0.169997 25.3905
0.34534 0.16772 25.3784
0.376516 0.167112 25.3673
0.411925 0.170671 25.4094
0.729515 0.159596 24.504
0.759784 0.159876 24.4773
0.790239 0.160868 24.4376
0.81862 0.158656 24.4265
0.847915 0.157652 24.4113
0.876235 0.155433 24.4001
0.906217 0.156488 24.3534
0.939941 0.159233 24.3756
0.971627 0.160397 24.3781
0.999836 0.158168 24.3669
1.02711 0.154721 24.3596
1.0603 0.157262 24.3698
1.09261 0.158584 24.384
1.12075 0.156337 24.3727
1.15309 0.157645 24.3868
1.18713 0.158156 24.4542
1.22412 0.161847 24.5214
-0.0649017 0.205222 25.609
-0.0292851 0.208771 25.5486
0.002373 0.20816 25.517
0.0335407 0.207155 25.5006
0.0635559 0.204893 25.4886
0.0958069 0.205173 25.4598
0.12605 0.203255 25.4408
0.157374 0.202639 25.4093
0.191694 0.205427 25.4207
0.224949 0.206959 25.4365
0.25478 0.204678 25.4244
0.284583 0.202392 25.4124
0.314356 0.200102 25.4003
0.348235 0.202331 25.4099
0.380587 0.202834 25.416
0.410702 0.200799 25.4192
0.439718 0.198051 25.3814
0.700834 0.191315 24.5482
0.728449 0.188681 24.513
0.759817 0.190894 24.4618
0.789194 0.189881 24.4467
0.819443 0.190469 24.4136
0.847891 0.188589 24.396
0.876955 0.18763 24.3735
0.906145 0.186609 24.3585
0.938382 0.187978 24.3728
0.970642 0.189344 24.3872
0.998861 0.187099 24.376
1.02705 0.184851 24.3647
1.05872 0.186003 24.3672
1.09256 0.188742 24.3892
1.11982 0.185274 24.3819
1.15216 0.1866 24.396
1.18597 0.189283 24.4156
1.22042 0.190192 24.4834
-0.0937491 0.240746 25.6065
-0.0674521 0.233947 25.5917
-0.0311177 0.238072 25.5062
0.00053819 0.237737 25.5082
0.034841 0.240259 25.4863
0.0648356 0.237985 25.4744
0.0973834 0.23858 25.4385
0.127289 0.236302 25.4266
0.157165 0.23402 25.4146
0.190403 0.235577 25.4304
0.223666 0.23713 25.4462
0.253509 0.234831 25.4342
0.284392 0.233774 25.4178
0.318811 0.236767 25.4055
0.352551 0.238795 25.4226
0.38229 0.236483 25.4105
0.41308 0.235378 25.4
0.441922 0.231811 25.4103
0.698845 0.22002 24.5332
0.729325 0.22058 24.5
0.759722 0.221146 24.4668
0.790037 0.221697 24.4337
0.82027 0.222255 24.4008
0.848589 0.220018 24.3897
0.87688 0.217776 24.3786
0.905144 0.215531 24.3674
0.936656 0.216341 24.3748
0.970235 0.21959 24.3794
0.999516 0.218498 24.3698
1.027 0.214983 24.3698
1.05766 0.216024 24.3477
1.09135 0.218979 24.3623
1.12052 0.217367 24.3629
1.15281 0.218368 24.3835
1.18362 0.216911 24.4194
1.21889 0.220504 24.4536
-0.101695 0.263319 25.5959
-0.0657175 0.266699 25.4996
-0.035647 0.264419 25.4877
-0.00236761 0.265765 25.467
0.0314156 0.2678 25.4544
0.0661196 0.271047 25.46
0.0960649 0.268757 25.4481
0.125982 0.266462 25.4362
0.15587 0.264163 25.4242
0.189115 0.265741 25.4401
0.22347 0.268554 25.4516
0.254401 0.26751 25.4272
0.284736 0.265862 25.401
0.320128 0.269926 25.4001
0.35341 0.271471 25.4157
0.383139 0.269146 25.4037
0.416462 0.270675 25.4192
0.450044 0.27237 25.4434
0.697773 0.249148 24.5422
0.730205 0.252452 24.4869
0.760451 0.252637 24.4604
0.790885 0.253486 24.4208
0.819241 0.251237 24.4097
0.84757 0.248984 24.3986
0.876809 0.247925 24.3835
0.905827 0.246905 24.3611
0.935605 0.246248 24.3547
0.967905 0.248376 24.3514
0.999403 0.24935 24.3546
1.02757 0.247079 24.3434
1.05661 0.246005 24.3283
1.08886 0.24738 24.3426
1.12114 0.248751 24.3568
1.15346 0.250113 24.371
1.18426 0.248692 24.4069
1.21514 0.247264 24.4428
1.24759 0.248611 24.4569
-0.132796 0.296437 25.6074
-0.0999579 0.296404 25.5451
-0.0670825 0.296943 25.5091
-0.034299 0.297466 25.4733
-0.00160887 0.297996 25.4375
0.0315791 0.299628 25.4536
0.0647933 0.301255 25.4696
0.0947501 0.298948 25.4577
0.124678 0.296636 25.4458
0.155669 0.295558 25.4294
0.191064 0.299596 25.438
0.22496 0.30191 25.4223
0.255846 0.300824 25.406
0.289113 0.3024 25.4218
0.322406 0.303972 25.4375
0.352175 0.301634 25.4255
0.381915 0.299291 25.4134
0.415247 0.300841 25.429
0.448605 0.302387 25.4446
0.698522 0.28072 24.5357
0.729147 0.281535 24.4959
0.760495 0.283562 24.4448
0.789848 0.282497 24.4297
0.818214 0.280233 24.4187
0.848387 0.280704 24.3857
0.876776 0.27876 24.3682
0.905776 0.27772 24.3458
0.936288 0.278027 24.3363
0.967862 0.278661 24.3522
0.999353 0.279479 24.3596
1.02752 0.277193 24.3485
1.05566 0.274904 24.3373
1.08793 0.276298 24.3516
1.12022 0.277689 24.3659
1.15254 0.279069 24.3802
1.18489 0.280447 24.3944
1.21566 0.279209 24.4245
1.25021 0.280767 24.4848
-0.131513 0.329011 25.5665
-0.0957983 0.332296 25.5064
-0.0653462 0.330307 25.4874
-0.0329467 0.330482 25.4588
-0.00294674 0.328176 25.447
0.0302488 0.329828 25.4631
0.0645826 0.332707 25.4748
0.0957052 0.331624 25.4505
0.125931 0.329615 25.4315
0.158919 0.33089 25.4319
0.194928 0.335648 25.4395
0.224771 0.333314 25.4276
0.254585 0.330976 25.4156
0.287861 0.332573 25.4314
0.321163 0.334166 25.4472
0.350943 0.331811 25.4352
0.384287 0.333387 25.4509
0.417656 0.334961 25.4666
0.451069 0.336524 25.4822
0.699577 0.31291 24.5159
0.730035 0.313351 24.4828
0.760409 0.313798 24.4497
0.790575 0.313917 24.4232
0.819172 0.312269 24.3991
0.849207 0.312396 24.3728
0.877475 0.310118 24.3618
0.905715 0.307836 24.3507
0.933927 0.305551 24.3397
0.967382 0.308368 24.3549
0.999306 0.30961 24.3646
1.02748 0.30731 24.3535
1.05562 0.305006 24.3423
1.08758 0.307021 24.3326
1.12024 0.309112 24.3415
1.14964 0.307293 24.3539
1.17998 0.306612 24.364
1.21638 0.310822 24.4178
1.24841 0.309856 24.4721
-0.190503 0.366748 25.5755
-0.158867 0.365807 25.5515
-0.127295 0.364877 25.5277
-0.0943993 0.365326 25.4918
-0.0643316 0.363011 25.48
-0.0331647 0.361919 25.4638
-0.00160952 0.361127 25.4325
0.0315676 0.362798 25.4486
0.0650967 0.364774 25.4576
0.0961964 0.363669 25.4334
0.127188 0.362563 25.4172
0.160405 0.364207 25.4331
0.193648 0.365848 25.4491
0.223503 0.363497 25.4372
0.25461 0.362612 25.4312
0.288813 0.365271 25.463
0.319923 0.364374 25.4569
0.352682 0.365324 25.465
0.386658 0.367579 25.4885
0.416444 0.365194 25.4764
0.446202 0.362804 25.4642
0.695964 0.339621 24.4997
0.730926 0.345138 24.4696
0.761149 0.345228 24.4431
0.790606 0.344751 24.4076
0.819892 0.34365 24.3927
0.848197 0.341361 24.3817
0.876474 0.339068 24.3706
0.906408 0.339152 24.3443
0.934701 0.337163 24.3268
0.965855 0.33779 24.3302
0.998538 0.339807 24.344
1.02736 0.33807 24.3382
1.05617 0.336962 24.3159
1.08656 0.337226 24.3063
1.11817 0.337869 24.3222
1.14964 0.338678 24.3295
1.18019 0.338158 24.3426
1.21203 0.338534 24.3679
1.24188 0.336853 24.3867
1.27528 0.336426 24.4633
-0.19366 0.394295 25.5499
-0.157524 0.398203 25.5106
-0.127402 0.395882 25.4989
-0.0941956 0.396618 25.4601
-0.0629479 0.395976 25.4654
-0.0325752 0.393943 25.4465
-0.000267977 0.394048 25.418
0.0328881 0.395741 25.4341
0.0660708 0.397431 25.4503
0.0959975 0.395085 25.4385
0.125896 0.392734 25.4266
0.159121 0.3944 25.4427
0.192372 0.396062 25.4587
0.222238 0.393694 25.4467
0.255533 0.39534 25.4627
0.288853 0.396982 25.4786
0.319984 0.396075 25.4725
0.352644 0.396888 25.4901
0.385438 0.397844 25.4982
0.415236 0.395441 25.4861
0.44779 0.395568 25.5775
0.696588 0.370964 24.4921
0.731678 0.376579 24.463
0.762163 0.37724 24.4234
0.790532 0.374944 24.4125
0.819823 0.37382 24.3975
0.849025 0.372997 24.3686
0.877285 0.370693 24.3577
0.906367 0.369875 24.3289
0.935478 0.368748 24.314
0.965012 0.36784 24.3085
0.99656 0.368529 24.3245
1.02802 0.369372 24.3319
1.05613 0.367046 24.3209
1.08423 0.364716 24.3097
1.11646 0.36616 24.3241
1.14873 0.3676 24.3385
1.17767 0.366433 24.3234
1.20908 0.366679 24.3415
1.24421 0.369196 24.403
1.28058 0.373848 24.4446
-0.193419 0.42606 25.5417
-0.152873 0.434689 25.4901
-0.130427 0.423405 25.468
-0.0942134 0.427853 25.4421
-0.0615599 0.42891 25.4507
-0.0288573 0.429255 25.4151
0.00142491 0.427202 25.3963
0.0311335 0.424913 25.4046
0.0660773 0.428643 25.4188
0.0972846 0.427981 25.424
0.128619 0.427106 25.3928
0.160369 0.427304 25.4283
0.1936 0.428989 25.4443
0.224831 0.428098 25.413
0.256454 0.428144 25.4942
0.287609 0.427236 25.4882
0.320983 0.428889 25.5041
0.359103 0.435913 25.4722
0.384222 0.428123 25.5079
0.42189 0.434598 25.5127
0.45235 0.432534 25.5844
0.698252 0.403975 24.4565
0.727892 0.402707 24.4633
0.757974 0.403067 24.4136
0.790421 0.405785 24.3855
0.819214 0.403982 24.3765
0.849856 0.404605 24.3556
0.880781 0.406367 24.3051
0.908097 0.402601 24.312
0.936259 0.400285 24.3011
0.964393 0.397965 24.2901
0.993983 0.396975 24.2902
1.02725 0.399598 24.308
1.05685 0.398599 24.3081
1.08492 0.396259 24.297
1.11361 0.394205 24.2977
1.1465 0.396928 24.2989
1.17809 0.398299 24.297
1.20925 0.398073 24.3211
1.24201 0.399705 24.3433
1.27113 0.397782 24.3503
1.29944 0.397617 24.2993
1.32805 0.39369 24.3366
1.35952 0.395799 24.3161
1.39062 0.395399 24.3378
-0.194947 0.454941 25.4986
-0.161575 0.455756 25.4632
-0.12913 0.455608 25.4272
-0.0960307 0.457372 25.4436
-0.0274843 0.462101 25.4004
0.00243126 0.459752 25.3888
0.032319 0.457397 25.3772
0.0634162 0.45653 25.3715
0.098576 0.460847 25.4095
0.128433 0.458475 25.3978
