-0.754293 -2.32416 25.1621
-0.30635 -2.29574 24.856
-0.275053 -2.30076 24.9166
-0.24247 -2.29859 24.9054
-0.205957 -2.29356 24.9116
-0.180307 -2.29735 24.8821
-0.148398 -2.29581 24.8707
-0.116709 -2.29553 24.8712
-0.0871718 -2.29646 24.8589
-0.0534482 -2.29184 24.8361
-0.0213239 -2.28845 24.8092
0.320184 -2.24159 24.3445
0.34272 -2.24739 24.3155
0.373868 -2.24445 24.2933
0.404509 -2.25085 24.35
0.43335 -2.25032 24.3269
0.470761 -2.26668 24.533
0.504149 -2.27672 24.6421
0.533049 -2.27771 24.6297
0.562199 -2.27931 24.625
0.593465 -2.27499 24.5906
0.625228 -2.27842 24.6251
0.657198 -2.27833 24.6321
0.688389 -2.2788 24.6366
0.721515 -2.27955 24.66
0.751311 -2.28241 24.6707
0.784529 -2.28317 24.6941
0.815447 -2.2879 24.728
0.848667 -2.29486 24.7973
0.882044 -2.30341 24.8784
-1.10221 -2.29153 25.1769
-1.0725 -2.29267 25.1533
-1.03322 -2.28037 25.0683
-0.997771 -2.27344 25.0116
-0.965395 -2.27119 24.9852
-0.935249 -2.27207 24.9736
-0.903706 -2.27274 24.987
-0.873607 -2.27631 25.0246
-0.844385 -2.28095 25.062
-0.815085 -2.2856 25.0993
-0.78257 -2.28619 25.1252
-0.753679 -2.29371 25.1997
-0.719779 -2.28768 25.1391
-0.306547 -2.26905 24.9165
-0.275526 -2.27284 24.9578
-0.245008 -2.2732 24.9491
-0.215304 -2.27414 24.9368
-0.18167 -2.27219 24.9421
-0.152012 -2.27314 24.9298
-0.112565 -2.26502 24.937
-0.0841002 -2.26576 24.9083
-0.0576228 -2.26856 24.879
-0.0166273 -2.25657 24.8629
0.0127185 -2.25692 24.8427
0.0762617 -2.2478 24.7569
0.0993531 -2.25306 24.719
0.139672 -2.23997 24.6873
0.376287 -2.21587 24.3401
0.404917 -2.21687 24.3282
0.437446 -2.21752 24.3517
0.46481 -2.22541 24.3883
0.500819 -2.23389 24.5117
0.52962 -2.22556 24.42
0.565191 -2.24162 24.6003
0.593716 -2.24202 24.5802
0.626706 -2.24273 24.6038
0.657011 -2.24552 24.6197
0.688315 -2.24594 24.6249
0.71989 -2.25034 24.6643
0.750937 -2.24994 24.6602
0.78241 -2.25187 24.6781
0.817031 -2.25344 24.7197
0.84847 -2.25839 24.7594
0.882313 -2.26689 24.8452
0.913227 -2.27504 24.9023
-1.14363 -2.2752 25.2986
-1.09806 -2.25184 25.1044
-1.06488 -2.24849 25.0669
-1.03024 -2.24364 25.0334
-0.995985 -2.23837 24.9841
-0.963887 -2.23718 24.9731
-0.933762 -2.23807 24.9615
-0.901996 -2.23846 24.975
-0.874299 -2.24561 25.0317
-0.84489 -2.24946 25.0592
-0.816879 -2.25582 25.1028
-0.784299 -2.25607 25.1247
-0.751552 -2.2557 25.1383
-0.723118 -2.26257 25.193
-0.308195 -2.24378 24.9766
-0.27644 -2.24389 24.9812
-0.242648 -2.24377 25.0108
-0.181661 -2.24444 24.9907
-0.15195 -2.24541 24.9784
-0.12182 -2.24555 24.9622
-0.0529054 -2.23716 24.9411
0.00799771 -2.22994 24.8376
0.0406693 -2.22966 24.8503
0.104549 -2.22244 24.7882
0.143985 -2.12136 23.8361
0.366669 -2.17725 24.484
0.436918 -2.18705 24.3522
0.465992 -2.19011 24.3631
0.496495 -2.18911 24.3519
0.532585 -2.2082 24.5683
0.563831 -2.21307 24.6122
0.592658 -2.21409 24.5998
0.625592 -2.21335 24.6108
0.657498 -2.21306 24.616
0.689383 -2.21361 24.6276
0.720332 -2.21658 24.6503
0.749607 -2.21852 24.6493
0.780932 -2.22135 24.6733
0.814515 -2.22211 24.7003
0.846408 -2.2252 24.73
0.87914 -2.23109 24.7877
0.914325 -2.2422 24.9041
-1.17259 -2.23727 25.2333
-1.12945 -2.22003 25.1136
-1.09729 -2.21637 25.0401
-1.06332 -2.21337 25.031
-1.02753 -2.20792 25.0123
-0.996037 -2.20722 24.9962
-0.964587 -2.20651 24.98
-0.934455 -2.20742 24.9685
-0.903678 -2.20787 24.962
-0.873724 -2.21176 25.0051
-0.844665 -2.21681 25.0493
-0.811821 -2.21552 25.0507
-0.78133 -2.21883 25.0884
-0.749982 -2.22062 25.114
-0.7205 -2.2252 25.1513
-0.69059 -2.22975 25.1942
-0.276663 -2.21201 24.9775
-0.243317 -2.2149 25.0392
-0.212418 -2.21666 25.0516
-0.178694 -2.21409 25.0487
-0.148923 -2.21507 25.0364
-0.116601 -2.21409 25.0341
-0.0837367 -2.21024 25.0056
-0.0601545 -2.21561 24.9669
0.00639855 -2.20109 24.8495
0.0413038 -2.19687 24.846
0.0710105 -2.19692 24.8271
0.101777 -2.19464 24.7964
0.133223 -2.19247 24.7755
0.163846 -2.19021 24.745
0.195276 -2.18578 24.7023
0.218322 -2.19173 24.6722
0.466761 -2.16035 24.3829
0.499143 -2.16039 24.3988
0.528119 -2.16838 24.4513
0.562569 -2.17557 24.5477
0.627362 -2.18343 24.6404
0.657147 -2.18291 24.6237
0.688114 -2.18418 24.633
0.720083 -2.1849 24.6466
0.74925 -2.18666 24.6434
0.78236 -2.18668 24.661
0.813604 -2.19044 24.6915
0.844103 -2.19322 24.7073
0.878471 -2.19787 24.7702
0.910785 -2.2082 24.8577
0.944361 -2.21043 24.8928
-1.19546 -2.19416 25.1979
-1.17017 -2.19999 25.1651
-1.12563 -2.1825 25.0768
-1.09896 -2.18633 25.0392
-1.06197 -2.17897 25.0048
-1.02824 -2.1772 25.0192
-0.998029 -2.17812 25.0076
-0.966097 -2.1766 24.9842
-0.935961 -2.17752 24.9726
-0.905851 -2.17845 24.961
-0.873868 -2.17866 24.976
-0.841455 -2.17919 25.0056
-0.811123 -2.18319 25.056
-0.780502 -2.18477 25.0656
-0.750368 -2.18571 25.0537
-0.719352 -2.18818 25.0856
-0.69035 -2.19609 25.1712
-0.659521 -2.19744 25.177
-0.245809 -2.19044 25.0996
-0.215938 -2.19143 25.0872
-0.186096 -2.19243 25.0747
-0.156284 -2.19342 25.0623
-0.114435 -2.18555 25.103
0.00361827 -2.17206 24.8449
0.0385853 -2.16573 24.8189
0.071942 -2.16323 24.8161
0.101293 -2.16425 24.8039
0.133058 -2.16044 24.7689
0.16367 -2.15821 24.7384
0.193931 -2.15766 24.7219
0.224281 -2.15629 24.6985
0.498633 -2.12922 24.3936
0.527759 -2.13292 24.4102
0.556818 -2.13609 24.421
0.589376 -2.14578 24.5212
0.625734 -2.15423 24.6444
0.655843 -2.15348 24.6287
0.687018 -2.15477 24.6401
0.718791 -2.15628 24.6586
0.748923 -2.15648 24.6512
0.781596 -2.15626 24.6631
0.814283 -2.15604 24.675
0.845157 -2.15958 24.7003
0.87758 -2.16435 24.7481
0.910577 -2.16847 24.7947
0.940784 -2.17801 24.858
-1.20135 -2.16772 25.1732
-1.16188 -2.15811 25.1417
-1.12767 -2.15331 25.0883
-1.09763 -2.15338 25.0466
-1.06273 -2.14852 25.0166
-1.03024 -2.14807 25.0306
-1.00002 -2.14901 25.0191
-0.966321 -2.14507 24.9838
-0.932723 -2.14116 24.9486
-0.904365 -2.14453 24.9488
-0.870669 -2.14096 24.9261
-0.839645 -2.14332 24.964
-0.809845 -2.14582 24.9769
-0.776896 -2.14365 24.9662
-0.745702 -2.14537 24.9917
-0.716716 -2.15159 25.0535
-0.687592 -2.15785 25.1154
-0.658331 -2.16414 25.1774
-0.277368 -2.16205 25.1485
-0.244684 -2.15678 25.0936
-0.214919 -2.16265 25.142
-0.183024 -2.16305 25.1495
-0.147972 -2.15905 25.1449
-0.121785 -2.16381 25.1291
-0.0874427 -2.14918 24.9891
-0.0578854 -2.14963 24.9687
-0.024187 -2.14253 24.9148
0.0377316 -2.1347 24.8151
0.0717853 -2.13002 24.7968
0.100562 -2.13128 24.7804
0.132037 -2.12889 24.7573
0.164267 -2.12631 24.7415
0.194805 -2.12413 24.7111
0.226313 -2.12039 24.6764
0.255596 -2.12201 24.6721
0.285747 -2.12161 24.6572
0.31526 -2.12287 24.6522
0.345722 -2.1224 24.6405
0.528577 -2.10307 24.4301
0.56008 -2.10516 24.455
0.593456 -2.11383 24.555
0.624468 -2.11713 24.5836
0.655658 -2.12157 24.6229
0.686958 -2.12197 24.6282
0.720036 -2.12276 24.6532
0.749401 -2.12401 24.6474
0.780835 -2.12583 24.665
0.813031 -2.12738 24.6869
0.845042 -2.12792 24.6985
0.876182 -2.13084 24.7212
0.907228 -2.13541 24.7552
0.942744 -2.14649 24.8767
-1.20064 -2.13379 25.1379
-1.16087 -2.12489 25.1361
-1.12971 -2.12409 25.0997
-1.09279 -2.11703 25.0651
-1.06362 -2.11868 25.0408
-1.03045 -2.1165 25.0301
-0.997872 -2.11409 24.9998
-0.966073 -2.11273 24.976
-0.930681 -2.10477 24.8943
-0.899951 -2.10554 24.8957
-0.8688 -2.10526 24.8846
-0.839026 -2.10691 24.8829
-0.806922 -2.10687 24.8977
-0.776037 -2.10843 24.9171
-0.746836 -2.11283 24.9543
-0.717413 -2.11816 25.0108
-0.686602 -2.12068 25.0415
-0.659131 -2.13054 25.1346
-0.626947 -2.13183 25.1657
-0.243403 -2.12584 25.1256
-0.216323 -2.13136 25.1312
-0.18318 -2.13314 25.1743
-0.153201 -2.13475 25.17
-0.0902726 -2.12115 24.9973
-0.0542554 -2.11094 24.9344
-0.0235961 -2.1104 24.9178
0.00963014 -2.10171 24.8401
0.0382364 -2.1031 24.8216
0.0721801 -2.09663 24.7816
0.101487 -2.09768 24.7694
0.162542 -2.09545 24.7284
0.195682 -2.09063 24.7002
0.224999 -2.09225 24.6959
0.252893 -2.09432 24.6802
0.284283 -2.09293 24.6689
0.31579 -2.0926 24.6696
0.348755 -2.08958 24.6598
0.380469 -2.08717 24.6428
0.512908 -2.06753 24.5427
0.561669 -2.07333 24.4652
0.590281 -2.07828 24.4868
0.624687 -2.08298 24.5617
0.654092 -2.08866 24.5953
0.688759 -2.08886 24.6311
0.719455 -2.09064 24.6424
0.749181 -2.09127 24.6349
0.780924 -2.0942 24.6648
0.8135 -2.09488 24.6832
0.842473 -2.09778 24.687
0.874016 -2.09963 24.705
0.908269 -2.10173 24.7481
0.944803 -2.10868 24.8478
0.974138 -2.12131 24.9273
-1.23377 -2.10546 25.2014
-1.19524 -2.09708 25.1712
-1.16292 -2.09561 25.1476
-1.13117 -2.09496 25.1314
-1.09505 -2.08839 25.0848
-1.0645 -2.08879 25.065
-1.03066 -2.08492 25.0296
-0.994881 -2.07746 24.9603
-0.964995 -2.07698 24.9093
-0.933348 -2.07536 24.8787
-0.902202 -2.07509 24.8676
-0.868436 -2.0729 24.877
-0.836861 -2.07247 24.873
-0.807795 -2.07525 24.8788
-0.775898 -2.07635 24.9119
-0.744521 -2.07771 24.9372
-0.717437 -2.08509 24.9863
-0.684716 -2.08711 25.0472
-0.655272 -2.09365 25.1219
-0.628801 -2.10256 25.1775
-0.181785 -2.10247 25.2121
-0.12098 -2.08548 24.9604
-0.0881356 -2.08569 24.9816
-0.0535805 -2.07808 24.9299
-0.0233739 -2.07729 24.9042
0.00966098 -2.07211 24.8643
0.0372344 -2.07276 24.8236
0.0673496 -2.0692 24.7683
0.0973867 -2.06885 24.7494
0.163075 -2.06286 24.7232
0.19418 -2.06189 24.7118
0.223334 -2.06297 24.6997
0.254531 -2.06024 24.6716
0.28414 -2.06124 24.6647
0.314933 -2.06162 24.6649
0.348725 -2.05717 24.6499
0.378233 -2.05818 24.6425
0.407145 -2.06105 24.6469
0.438048 -2.05833 24.6189
0.466952 -2.05943 24.6067
0.594511 -2.04743 24.5321
0.621158 -2.05365 24.545
0.654174 -2.05597 24.5847
0.687464 -2.06023 24.643
0.720093 -2.05996 24.655
0.750218 -2.06019 24.6477
0.781015 -2.06257 24.6645
0.813277 -2.06292 24.6776
0.843847 -2.06478 24.6873
0.872785 -2.07012 24.7104
0.90815 -2.07002 24.7463
0.940568 -2.0746 24.7925
0.975377 -2.08273 24.8858
-1.23622 -2.07647 25.2114
-1.1973 -2.06776 25.1826
-1.16496 -2.0663 25.159
-1.13268 -2.06486 25.1353
-1.10046 -2.06342 25.1118
-1.06673 -2.06014 25.0846
-1.03199 -2.05409 25.0162
-0.998752 -2.04849 24.9231
-0.966354 -2.04629 24.896
-0.931973 -2.0426 24.8859
-0.899629 -2.04091 24.8718
-0.864612 -2.03625 24.8573
-0.83485 -2.0378 24.854
-0.807991 -2.04359 24.8731
-0.777779 -2.04732 24.9232
-0.74494 -2.04673 24.9421
-0.716981 -2.05349 24.9985
-0.685609 -2.05463 25.0168
-0.656621 -2.06151 25.091
-0.627865 -2.07096 25.2026
-0.174434 -2.0007 24.398
-0.148167 -2.00587 24.4012
-0.116534 -2.00229 24.3676
-0.0856968 -2.00132 24.3569
-0.0259133 -2.0431 24.8404
0.00853636 -2.03667 24.8047
0.0380798 -2.03858 24.8045
0.0667916 -2.03692 24.7527
0.160136 -2.03347 24.7107
0.192518 -2.03258 24.7155
0.224204 -2.02952 24.6887
0.254597 -2.02747 24.6584
0.283653 -2.02857 24.6463
0.314979 -2.02722 24.6351
0.346803 -2.02782 24.6493
0.378731 -2.02747 24.6549
0.407708 -2.02858 24.6427
0.436655 -2.02969 24.6305
0.469199 -2.02938 24.6429
0.500979 -2.02743 24.6318
0.591552 -2.02145 24.5507
0.622495 -2.02331 24.5668
0.654138 -2.02472 24.5855
0.686169 -2.03156 24.6547
0.71881 -2.03128 24.6668
0.748949 -2.03153 24.6595
0.780969 -2.03218 24.6732
0.812946 -2.03188 24.6784
0.843496 -2.0339 24.6895
0.875891 -2.03602 24.7177
0.907093 -2.03967 24.7469
0.938572 -2.04228 24.7697
0.972035 -2.04873 24.8393
1.00788 -2.05587 24.9333
-1.23565 -2.04287 25.1757
-1.19936 -2.0384 25.1939
-1.167 -2.03698 25.1703
-1.1347 -2.03557 25.1467
-1.10046 -2.03221 25.13
-1.0721 -2.03515 25.1115
-0.995145 -2.01232 24.9072
-0.966089 -2.01508 24.9128
-0.932174 -2.01121 24.8854
-0.898099 -2.00835 24.8876
-0.866683 -2.0078 24.8766
-0.836744 -2.00882 24.8652
-0.806538 -2.01183 24.9029
-0.77858 -2.01735 24.9398
-0.746082 -2.01688 24.9536
-0.715074 -2.0193 24.9915
-0.687139 -2.02551 25.0354
-0.656284 -2.02793 25.0662
-0.626932 -2.0393 25.2278
-0.597424 -2.04535 25.2904
-0.209103 -1.97425 24.4025
-0.178411 -1.97384 24.3958
-0.147456 -1.96967 24.3435
-0.11558 -1.96848 24.3447
-0.086218 -1.96946 24.3385
-0.0571829 -1.97143 24.3404
-0.0239937 -1.96854 24.3384
0.00620087 -1.96985 24.3476
0.0695436 -1.99577 24.6754
0.0997467 -1.98662 24.5586
0.129751 -1.99804 24.6757
0.161042 -2.00002 24.6997
0.193324 -1.99886 24.7006
0.225079 -1.99609 24.6778
0.254171 -1.99721 24.6657
0.284268 -1.99678 24.6493
0.314184 -1.9974 24.6422
0.346736 -1.99601 24.6444
0.378332 -1.99722 24.6622
0.408276 -1.99612 24.6385
0.437781 -1.99716 24.6315
0.470399 -1.99699 24.6462
0.502305 -1.99661 24.6511
0.531201 -1.99774 24.6388
0.559218 -2.00032 24.631
0.599432 -1.99316 24.658
0.627384 -1.99271 24.6223
0.654835 -1.99476 24.6048
0.684404 -2.00208 24.6547
0.71753 -2.00259 24.6786
0.747682 -2.00284 24.6712
0.779714 -2.00348 24.685
0.811704 -2.00317 24.6902
0.844331 -2.00379 24.7088
0.875253 -2.00466 24.7134
0.905245 -2.0091 24.7385
0.937917 -2.01235 24.7774
0.970497 -2.01589 24.8168
1.00287 -2.02616 24.9062
-1.2317 -2.00636 25.1662
-1.20087 -2.00823 25.1979
-1.1669 -2.0061 25.2076
-1.13687 -2.00708 25.179
-1.10302 -2.00496 25.1853
-0.998227 -1.98274 24.871
-0.959755 -1.9789 24.9709
-0.934945 -1.98457 24.9332
-0.870032 -1.98034 24.8873
-0.8391 -1.98141 24.9008
-0.807796 -1.98249 24.9225
-0.778999 -1.98671 24.9515
-0.747641 -1.9878 24.9721
-0.716932 -1.99017 25.0029
-0.688989 -1.99633 25.0468
-0.657558 -2.00071 25.1275
-0.628781 -2.00992 25.2395
-0.601698 -2.01815 25.294
-0.209976 -1.9406 24.3526
-0.179422 -1.93862 24.3234
-0.148303 -1.93667 24.3037
-0.116887 -1.93487 24.2911
-0.0844418 -1.93355 24.2995
-0.0541877 -1.93312 24.2887
-0.0252396 -1.93498 24.289
0.00462752 -1.93624 24.2941
0.0372638 -1.93722 24.3324
0.0650023 -1.93985 24.3252
0.0992115 -1.96739 24.6921
0.129606 -1.96749 24.6837
0.162498 -1.9666 24.6955
0.196584 -1.96247 24.6854
0.223601 -1.96735 24.6893
0.252157 -1.9669 24.6536
0.283506 -1.96495 24.6358
0.314823 -1.96426 24.6313
0.345279 -1.96496 24.6314
0.377514 -1.96539 24.6488
0.408182 -1.96422 24.6323
0.437184 -1.96459 24.6132
0.471076 -1.9635 24.6332
0.502236 -1.96392 24.6381
0.53176 -1.96633 24.6446
0.56125 -1.97094 24.671
0.592909 -1.97163 24.6829
0.657618 -1.96995 24.6918
0.687411 -1.9727 24.7028
0.717603 -1.97296 24.6955
0.748952 -1.97357 24.7025
0.780308 -1.97418 24.7094
0.811833 -1.97354 24.7072
0.843206 -1.97416 24.7141
0.874587 -1.97478 24.721
0.90694 -1.97727 24.7517
0.938118 -1.98263 24.7946
0.971617 -1.98316 24.8183
1.00659 -1.99241 24.9235
-1.19825 -1.97248 25.1634
-1.16612 -1.97193 25.1608
-1.13626 -1.97617 25.2334
-1.10576 -1.97719 25.2217
-0.841932 -1.9555 24.9609
-0.8122 -1.9576 24.9657
-0.780127 -1.95762 24.9807
-0.748376 -1.95806 24.9964
-0.718786 -1.96102 25.0142
-0.689679 -1.96652 25.0713
-0.659523 -1.97207 25.1489
-0.628534 -1.97525 25.1944
-0.598176 -1.98097 25.272
-0.568223 -1.98436 25.2954
-0.240592 -1.91107 24.3747
-0.207743 -1.90609 24.3369
-0.177576 -1.90503 24.3142
-0.147965 -1.9044 24.2901
-0.117915 -1.90335 24.2675
-0.0868274 -1.90202 24.2571
-0.0556455 -1.90251 24.2717
-0.0242225 -1.90209 24.2778
0.00454979 -1.90321 24.2665
0.0366591 -1.90354 24.2908
0.0659697 -1.90692 24.3141
0.127948 -1.93821 24.6872
0.160999 -1.93782 24.707
0.192481 -1.93588 24.6891
0.251904 -1.93262 24.6188
0.283016 -1.93368 24.6309
0.314137 -1.9333 24.6275
0.346185 -1.9333 24.6388
0.377 -1.9341 24.644
0.406864 -1.93475 24.6369
0.436806 -1.93438 24.6205
0.468706 -1.93402 24.6261
0.501872 -1.93368 24.6454
0.531028 -1.93537 24.641
0.564575 -1.93684 24.6808
0.593727 -1.93968 24.6867
0.624546 -1.94309 24.7147
0.657237 -1.94276 24.7271
0.686122 -1.94394 24.7146
0.718439 -1.94068 24.6966
0.750222 -1.94423 24.7338
0.780417 -1.9445 24.7264
0.810595 -1.94479 24.719
0.844585 -1.94481 24.7455
0.876136 -1.94418 24.7432
0.906683 -1.94712 24.7612
0.939243 -1.94994 24.7961
0.970596 -1.95352 24.8255
1.00434 -1.96106 24.9071
-1.16719 -1.94349 25.2417
-1.13459 -1.942 25.2206
-1.10776 -1.94778 25.2331
-0.8749 -1.92841 25.0329
-0.844454 -1.92844 25.0049
-0.813154 -1.92804 24.9904
-0.781405 -1.92847 25.0062
-0.749281 -1.92848 25.0212
-0.720552 -1.93526 25.0999
-0.688448 -1.93611 25.1279
-0.660588 -1.94143 25.1506
-0.628584 -1.94242 25.1767
-0.597088 -1.9443 25.2075
-0.568183 -1.94996 25.2537
-0.268469 -1.87696 24.3743
-0.23833 -1.87655 24.3589
-0.207363 -1.8738 24.3232
-0.176107 -1.87126 24.2963
-0.147232 -1.87237 24.2852
-0.117288 -1.87198 24.2698
-0.0884732 -1.87311 24.2586
-0.0552936 -1.87042 24.2605
-0.0247777 -1.87092 24.266
0.00524052 -1.87122 24.2617
0.0348036 -1.8737 24.2786
0.0669416 -1.87402 24.3029
0.0942176 -1.88055 24.3369
0.12545 -1.90702 24.657
0.159713 -1.90732 24.7012
0.250769 -1.90418 24.6369
0.282225 -1.90385 24.6379
0.313776 -1.90316 24.6362
0.344997 -1.90371 24.6436
0.376228 -1.90426 24.6511
0.407496 -1.90298 24.6399
0.436432 -1.90416 24.6277
0.467587 -1.90456 24.6327
0.499209 -1.90588 24.6517
0.529413 -1.90615 24.6447
0.561995 -1.9058 24.6571
0.593612 -1.90698 24.6737
0.622788 -1.91354 24.7146
0.657278 -1.91304 24.744
0.686279 -1.91363 24.7269
0.722698 -1.90768 24.7254
0.750796 -1.91025 24.7176
0.780533 -1.9148 24.7434
0.811943 -1.9154 24.7504
0.84336 -1.916 24.7573
0.874925 -1.91538 24.7551
0.906931 -1.91677 24.7737
0.93921 -1.91846 24.7971
0.969387 -1.92386 24.8309
1.002 -1.92821 24.8774
1.03545 -1.9318 24.9242
-0.973318 -1.90677 25.2025
-0.939448 -1.90316 25.1668
-0.908052 -1.90117 25.1053
-0.883119 -1.90701 25.0667
-0.844712 -1.89898 25.0531
-0.811338 -1.89711 25.0559
-0.781225 -1.89819 25.0442
-0.75469 -1.90497 25.0725
-0.724632 -1.90759 25.0927
-0.690418 -1.90626 25.125
-0.658176 -1.90653 25.1437
-0.627854 -1.90899 25.1628
-0.598809 -1.9143 25.2091
-0.567721 -1.91601 25.2273
-0.305175 -1.82189 24.4138
-0.270094 -1.84848 24.3851
-0.237926 -1.84426 24.3451
-0.206608 -1.84174 24.3182
-0.176583 -1.84136 24.3028
-0.146493 -1.84036 24.2802
-0.117306 -1.84065 24.2626
-0.0869854 -1.83881 24.2336
-0.0556229 -1.83854 24.2418
-0.0240678 -1.83843 24.2545
0.00549246 -1.83905 24.2482
0.0372214 -1.83935 24.2679
0.0654452 -1.84563 24.3138
0.0972865 -1.84726 24.3495
0.126735 -1.87381 24.6518
0.157282 -1.87344 24.6405
0.191415 -1.87224 24.6657
0.217399 -1.87787 24.6651
0.251294 -1.87275 24.6424
0.28186 -1.87369 24.6466
0.313932 -1.8708 24.6269
0.345728 -1.87117 24.6396
0.376725 -1.87173 24.6447
0.40728 -1.87122 24.6332
0.436413 -1.87155 24.6146
0.46828 -1.87114 24.6195
0.500545 -1.87243 24.6458
0.529966 -1.87373 24.6404
0.560248 -1.87631 24.6569
0.593274 -1.8767 24.6811
0.62394 -1.88029 24.7099
0.657071 -1.88132 24.7399
0.688784 -1.87628 24.6986
0.722642 -1.87623 24.7253
0.752835 -1.87652 24.718
0.780299 -1.88308 24.7394
0.813291 -1.88594 24.7818
0.843512 -1.88625 24.7744
0.875617 -1.88593 24.7796
0.907816 -1.88653 24.7934
0.940287 -1.88893 24.8244
0.971595 -1.89418 24.8675
1.00592 -1.89636 24.912
1.0388 -1.90257 24.9749
-1.07682 -1.88665 25.2964
-1.0456 -1.88621 25.2594
-1.00884 -1.87994 25.233
-0.978201 -1.88053 25.2128
-0.947806 -1.88162 25.201
-0.910696 -1.87387 25.1498
-0.880073 -1.87396 25.1215
-0.84952 -1.87406 25.0932
-0.819335 -1.87516 25.0815
-0.783926 -1.87197 25.1049
-0.755586 -1.87603 25.1153
-0.720982 -1.87204 25.0989
-0.690449 -1.87461 25.1287
-0.658783 -1.87564 25.1506
-0.626131 -1.87587 25.177
-0.597178 -1.88232 25.2449
-0.567148 -1.88725 25.3025
-0.271695 -1.82046 24.4036
-0.237157 -1.81217 24.34
-0.208202 -1.81331 24.3289
-0.176576 -1.81 24.2955
-0.146141 -1.80819 24.2665
-0.117321 -1.80933 24.2554
-0.0874389 -1.80899 24.24
-0.0560573 -1.80855 24.2463
-0.0248897 -1.80899 24.2609
0.00505467 -1.80922 24.2548
0.0371399 -1.80947 24.2792
0.066727 -1.81193 24.2961
0.0959734 -1.81678 24.3374
0.152113 -1.84144 24.5635
0.190571 -1.84146 24.6616
0.221056 -1.84161 24.6554
0.252731 -1.84023 24.6471
0.282626 -1.84016 24.6316
0.314399 -1.83805 24.6168
0.346427 -1.83801 24.6282
0.377221 -1.83879 24.6336
0.407067 -1.83948 24.6265
0.436991 -1.83917 24.6102
0.468872 -1.8388 24.6159
0.500714 -1.83932 24.6301
0.529897 -1.84113 24.6273
0.561388 -1.84377 24.6578
0.592939 -1.84641 24.6884
0.626614 -1.84302 24.6827
0.657288 -1.84719 24.7174
0.686156 -1.84843 24.705
0.71955 -1.84806 24.7243
0.751578 -1.84772 24.7297
0.781432 -1.85044 24.7407
0.813654 -1.85147 24.7596
0.84367 -1.85646 24.7914
0.875876 -1.85704 24.8053
0.908009 -1.85672 24.8105
0.941168 -1.85769 24.836
0.972364 -1.86317 24.8804
1.0042 -1.8649 24.8985
1.03734 -1.87221 24.9736
-1.04329 -1.85058 25.2214
-1.01188 -1.85156 25.2405
-0.978992 -1.85026 25.2372
-0.949935 -1.8527 25.2207
-0.915895 -1.84866 25.1766
-0.882322 -1.84562 25.1493
-0.850682 -1.8454 25.1422
-0.817966 -1.84433 25.1439
-0.786255 -1.84424 25.1427
-0.751333 -1.8393 25.1101
-0.72119 -1.84043 25.0983
-0.689293 -1.84242 25.1495
-0.66061 -1.84629 25.162
-0.628395 -1.84639 25.1758
-0.598279 -1.85062 25.2262
-0.568516 -1.85475 25.264
-0.538672 -1.8589 25.3018
-0.23876 -1.78371 24.3507
-0.208677 -1.78337 24.3353
-0.176804 -1.77937 24.295
-0.146603 -1.77831 24.2729
-0.117777 -1.77948 24.2618
-0.087794 -1.77971 24.2557
-0.0571066 -1.78016 24.2637
-0.0264089 -1.78062 24.2716
0.00354727 -1.78086 24.2654
0.0359746 -1.78036 24.2851
0.067412 -1.77993 24.2913
0.094293 -1.78765 24.3366
0.127547 -1.79117 24.4153
0.152505 -1.81019 24.5684
0.188211 -1.81102 24.6412
0.218463 -1.81039 24.6231
0.251569 -1.80513 24.5884
0.286566 -1.79922 24.5712
0.317321 -1.79986 24.5756
0.348702 -1.79574 24.5349
0.374568 -1.80378 24.5614
0.407161 -1.80657 24.6106
0.436628 -1.80894 24.6173
0.466432 -1.80964 24.6102
0.497655 -1.81125 24.6289
0.529552 -1.81089 24.6345
0.562528 -1.81121 24.6588
0.592835 -1.81377 24.6753
0.624866 -1.81041 24.6525
0.658018 -1.81139 24.6836
0.68668 -1.81596 24.7009
0.717593 -1.81926 24.729
0.750323 -1.81889 24.7413
0.779503 -1.82064 24.7366
0.844339 -1.82692 24.8159
0.876568 -1.82749 24.8299
0.908208 -1.82688 24.8276
0.940122 -1.82797 24.8424
0.973101 -1.83336 24.9031
1.00501 -1.83525 24.9234
1.03759 -1.8426 24.9941
-1.01047 -1.81722 25.2124
-0.978247 -1.81629 25.1988
-0.950503 -1.82191 25.2366
-0.91555 -1.81785 25.2189
-0.881489 -1.81459 25.1985
-0.850149 -1.81434 25.1795
-0.816612 -1.81123 25.1501
-0.782952 -1.8081 25.1258
-0.752777 -1.80924 25.1141
-0.719363 -1.80798 25.1306
-0.692296 -1.81432 25.1604
-0.662434 -1.81692 25.1733
-0.629767 -1.8171 25.1999
-0.598015 -1.81738 25.2059
-0.566934 -1.81904 25.2242
-0.535309 -1.82189 25.2778
-0.384712 -1.85244 25.0145
-0.212857 -1.75724 24.3379
-0.178137 -1.75024 24.2988
-0.148163 -1.74992 24.2835
-0.118146 -1.75016 24.2774
-0.0889774 -1.75144 24.2733
-0.0581534 -1.75174 24.281
-0.0267332 -1.7513 24.2873
0.00324383 -1.75155 24.2811
0.0359534 -1.75127 24.3082
0.068958 -1.75107 24.3393
0.0974194 -1.75518 24.3607
0.132073 -1.75745 24.444
0.161225 -1.76888 24.5627
0.190797 -1.77406 24.6072
0.220075 -1.77598 24.6072
0.249217 -1.77607 24.5837
0.281805 -1.75743 24.3884
0.311115 -1.76004 24.4
0.375686 -1.77783 24.6334
0.405921 -1.77403 24.5822
0.436058 -1.77654 24.5988
0.466012 -1.77772 24.5988
0.498746 -1.77705 24.6115
0.530116 -1.77851 24.6302
0.560793 -1.78174 24.6585
0.593384 -1.78133 24.671
0.623213 -1.78109 24.6545
0.654857 -1.7822 24.6712
0.687494 -1.78181 24.6836
0.715352 -1.78808 24.7083
0.74907 -1.79004 24.7529
0.781697 -1.79657 24.8271
0.815651 -1.79665 24.8543
0.847839 -1.79631 24.8597
0.876747 -1.7976 24.8469
0.909682 -1.79724 24.8592
0.941766 -1.79916 24.8826
0.971932 -1.80435 24.9151
1.00748 -1.80569 24.965
1.04303 -1.8112 25.0483
-0.947756 -1.78697 25.2369
-0.91326 -1.78406 25.2394
-0.880988 -1.78243 25.2072
-0.850529 -1.78321 25.1887
-0.815458 -1.77833 25.1561
-0.783705 -1.77767 25.1408
-0.753515 -1.77883 25.129
-0.723352 -1.77999 25.1172
-0.694352 -1.78589 25.1883
-0.664148 -1.78706 25.1763
-0.63056 -1.78639 25.2074
-0.598601 -1.78641 25.2128
-0.5673 -1.78661 25.2062
-0.535645 -1.78775 25.2272
-0.504134 -1.79063 25.2782
-0.47043 -1.78968 25.2996
-0.178454 -1.72165 24.3284
-0.14972 -1.72151 24.294
-0.117823 -1.721 24.3072
-0.0870887 -1.72143 24.3153
-0.0570627 -1.72168 24.3091
-0.0270507 -1.72194 24.303
0.00419543 -1.72234 24.3177
0.036875 -1.72094 24.329
0.068181 -1.72135 24.3437
0.128944 -1.72847 24.4265
0.158869 -1.7283 24.4123
0.18784 -1.72998 24.4085
0.216632 -1.73121 24.397
0.245575 -1.73289 24.3931
0.275159 -1.73219 24.3696
0.310406 -1.72831 24.3825
0.340676 -1.72837 24.3773
0.366923 -1.73356 24.3798
0.401386 -1.74064 24.5032
0.433495 -1.74377 24.5517
0.466897 -1.74012 24.5417
0.498168 -1.7442 24.5884
0.530058 -1.74597 24.6169
0.560429 -1.74842 24.6342
0.59245 -1.74928 24.6536
0.623941 -1.74713 24.6368
0.652678 -1.75113 24.6505
0.686222 -1.75301 24.6951
0.716012 -1.75569 24.7063
0.776878 -1.76978 24.8215
0.813703 -1.76771 24.8591
0.846622 -1.76733 24.8715
0.875543 -1.76864 24.8587
0.908491 -1.76827 24.871
0.943934 -1.76794 24.9077
0.975162 -1.77489 24.9657
1.00485 -1.77707 24.967
1.04188 -1.78202 25.0604
-0.916214 -1.75373 25.1869
-0.883063 -1.75345 25.2268
-0.849303 -1.75005 25.1911
-0.81733 -1.74894 25.1673
-0.785421 -1.74783 25.1437
-0.758935 -1.75496 25.1806
-0.724905 -1.75348 25.2079
-0.693039 -1.75238 25.1841
-0.662341 -1.75271 25.1652
-0.628884 -1.75172 25.1867
-0.596743 -1.75156 25.1934
-0.566594 -1.75275 25.1814
-0.535817 -1.75567 25.2205
-0.504419 -1.75704 25.2401
-0.474396 -1.75965 25.2529
-0.137654 -1.68104 24.348
-0.116324 -1.69081 24.3421
-0.085163 -1.68848 24.3152
-0.0573942 -1.69228 24.3248
-0.0261375 -1.69266 24.3397
0.00535324 -1.69221 24.3459
0.0373704 -1.6917 24.359
0.0967325 -1.69751 24.4064
0.127424 -1.69498 24.3725
0.185439 -1.69879 24.3729
0.218721 -1.69612 24.3747
0.247578 -1.69667 24.3563
0.276274 -1.69792 24.3448
0.31049 -1.6941 24.3455
0.341527 -1.69549 24.3662
0.402646 -1.70716 24.4925
0.434018 -1.70845 24.5128
0.46539 -1.7095 24.5297
0.496398 -1.7127 24.5648
0.526239 -1.71662 24.5927
0.559875 -1.71605 24.6171
0.59117 -1.71779 24.6377
0.623944 -1.71661 24.6449
0.656349 -1.71695 24.6628
0.684952 -1.72419 24.7066
0.715725 -1.72823 24.7414
0.748106 -1.73616 24.829
0.778536 -1.73774 24.8345
0.81335 -1.73527 24.8479
0.84561 -1.73557 24.8601
0.876034 -1.73601 24.8547
0.907845 -1.7353 24.8529
0.940281 -1.73889 24.8951
0.978189 -1.74027 24.9703
1.01169 -1.75057 25.0779
1.0439 -1.75223 25.0975
-0.915347 -1.72279 25.2498
-0.880721 -1.71739 25.1764
-0.847772 -1.71608 25.1783
-0.81751 -1.71726 25.1666
-0.78654 -1.71855 25.1803
-0.758547 -1.72465 25.2347
-0.725098 -1.72176 25.2072
-0.692841 -1.71996 25.176
-0.661434 -1.71962 25.1596
-0.628656 -1.71903 25.1738
-0.595857 -1.71843 25.1879
-0.565719 -1.71964 25.176
-0.533936 -1.72073 25.2007
-0.50318 -1.72371 25.2403
-0.476147 -1.73016 25.2643
-0.0538947 -1.66124 24.3791
-0.0250075 -1.66248 24.3679
0.00505719 -1.66275 24.3617
0.0376463 -1.66296 24.3936
0.0657411 -1.66622 24.3985
0.0967475 -1.66393 24.3714
0.125544 -1.66518 24.36
0.154312 -1.66644 24.3486
0.186619 -1.66658 24.3731
0.218468 -1.66543 24.3745
0.247199 -1.6667 24.3629
0.275902 -1.66797 24.3514
0.304576 -1.66924 24.3399
0.367899 -1.67523 24.4338
0.39798 -1.6785 24.4614
0.433467 -1.67626 24.4942
0.462943 -1.67886 24.5057
0.494544 -1.68029 24.5296
0.529114 -1.68186 24.5893
0.559125 -1.68468 24.6075
0.59022 -1.68848 24.6475
0.622361 -1.68738 24.6484
0.65429 -1.68701 24.654
0.688522 -1.68784 24.697
0.715436 -1.7007 24.7765
0.747403 -1.7049 24.8245
0.78241 -1.70166 24.8331
0.814478 -1.70191 24.8433
0.84692 -1.70262 24.8613
0.877393 -1.70255 24.8517
0.906727 -1.70443 24.8484
0.94025 -1.70472 24.8727
0.971487 -1.70662 24.888
1.01305 -1.71776 25.0833
-0.791019 -1.69485 25.2746
-0.756596 -1.68908 25.1928
-0.725285 -1.69004 25.2065
-0.693426 -1.689 25.1827
-0.662135 -1.68922 25.1763
-0.630117 -1.68954 25.1923
-0.597644 -1.689 25.1992
-0.567491 -1.69023 25.1872
-0.535007 -1.6897 25.194
-0.50291 -1.69003 25.2099
0.036507 -1.63435 24.409
0.0664452 -1.63414 24.3935
0.0952816 -1.6354 24.3821
0.12409 -1.63667 24.3707
0.153921 -1.63647 24.3551
0.185219 -1.63663 24.3658
0.217047 -1.63691 24.3852
0.246322 -1.63946 24.3969
0.334301 -1.64715 24.4318
0.367198 -1.64507 24.4347
0.400688 -1.64414 24.4583
0.431676 -1.64562 24.4771
0.463371 -1.64522 24.483
0.495898 -1.64664 24.5188
0.52718 -1.65056 24.5656
0.559062 -1.65223 24.5941
0.588072 -1.65839 24.6352
0.622052 -1.65709 24.6555
0.653015 -1.6582 24.6654
0.679611 -1.66255 24.6586
0.71833 -1.67138 24.8298
0.75052 -1.67186 24.8441
0.783459 -1.67105 24.8536
0.81623 -1.67158 24.8738
0.84571 -1.6736 24.873
0.877617 -1.67304 24.8733
0.910481 -1.67145 24.8741
0.940003 -1.6729 24.8686
0.972631 -1.67339 24.8855
1.00155 -1.67733 24.8958
-0.760728 -1.66084 25.1652
-0.727473 -1.65937 25.1725
-0.693954 -1.65863 25.2069
-0.662441 -1.65893 25.2081
-0.629445 -1.65752 25.2074
-0.597841 -1.65731 25.1985
-0.567691 -1.65855 25.1865
-0.535878 -1.65897 25.1985
-0.503471 -1.65913 25.2184
-0.0621336 -1.61276 24.4449
-0.0331605 -1.61403 24.4335
0.00291036 -1.60763 24.4251
0.0939504 -1.60728 24.4005
0.122501 -1.60773 24.3736
0.186846 -1.60708 24.4074
0.245456 -1.61217 24.4309
0.276356 -1.6135 24.4491
0.307369 -1.61193 24.4327
0.338638 -1.61245 24.4452
0.372075 -1.6091 24.4401
0.400327 -1.61249 24.4466
0.432909 -1.61277 24.4723
0.463037 -1.61511 24.4898
0.494389 -1.6161 24.5067
0.525396 -1.61918 24.5418
0.556775 -1.62196 24.5771
0.590417 -1.62396 24.6296
0.619498 -1.62934 24.663
0.64832 -1.63069 24.6508
0.684602 -1.64233 24.8277
0.716154 -1.64248 24.832
0.750636 -1.64187 24.861
0.785362 -1.64236 24.9025
0.815539 -1.64319 24.8974
0.844467 -1.64387 24.8776
0.876745 -1.64366 24.8852
0.909299 -1.64241 24.8858
0.940232 -1.64289 24.8856
0.970511 -1.6433 24.8782
1.00361 -1.64341 24.8962
-0.726912 -1.62758 25.1918
-0.695765 -1.62915 25.2181
-0.661454 -1.62679 25.2305
-0.628208 -1.62436 25.2098
-0.597545 -1.6248 25.1909
-0.567408 -1.62606 25.1789
-0.534934 -1.62548 25.1851
-0.502112 -1.62498 25.2017
0.0294632 -1.58388 24.4628
0.0597374 -1.5846 24.4644
0.188752 -1.57666 24.4427
0.215226 -1.58226 24.4533
0.248717 -1.5789 24.4484
0.27751 -1.58022 24.4368
0.308561 -1.57909 24.4262
0.339503 -1.57955 24.4339
0.371727 -1.57903 24.4468
0.400447 -1.58036 24.4351
0.433052 -1.58046 24.4596
0.463042 -1.58285 24.4763
0.492689 -1.58682 24.506
0.525449 -1.58694 24.5304
0.558855 -1.589 24.5832
0.589971 -1.59275 24.625
0.618217 -1.60052 24.6742
0.654112 -1.60556 24.7826
0.68303 -1.61075 24.809
0.717155 -1.61183 24.8524
0.752895 -1.61143 24.8976
0.78297 -1.61453 24.9135
0.814293 -1.61342 24.902
0.844207 -1.61331 24.8851
0.876433 -1.61295 24.8906
0.908755 -1.61342 24.9048
0.940723 -1.61027 24.8815
0.972705 -1.60902 24.8763
1.00342 -1.60989 24.8775
-0.695417 -1.59557 25.1797
-0.66127 -1.59363 25.2009
-0.628393 -1.59266 25.209
-0.596639 -1.59172 25.1852
-0.566512 -1.59299 25.1733
-0.534055 -1.59245 25.1802
-0.501987 -1.59273 25.1962
-0.470764 -1.593 25.1897
-0.278653 -1.57183 24.8241
-0.125138 -1.56199 24.606
-0.0933096 -1.55898 24.572
-0.0628709 -1.55814 24.5493
-0.0298218 -1.55342 24.5121
0.000685179 -1.55338 24.5051
0.03251 -1.55243 24.5066
0.0633658 -1.55278 24.5115
0.0946356 -1.551 24.4921
0.123566 -1.55232 24.4805
0.152749 -1.55286 24.4625
0.184473 -1.55111 24.4521
0.218277 -1.54847 24.4613
0.248349 -1.54881 24.4549
0.277148 -1.55014 24.4433
0.30718 -1.55049 24.4369
0.338134 -1.55094 24.4447
0.370367 -1.55041 24.4576
0.400379 -1.55077 24.4511
0.431974 -1.55113 24.4656
0.463648 -1.55071 24.4716
0.49535 -1.55175 24.4944
0.524142 -1.55823 24.5414
0.556569 -1.55773 24.5542
0.588683 -1.56395 24.6361
0.621912 -1.57046 24.7321
0.653514 -1.57651 24.801
0.687648 -1.57503 24.819
0.718159 -1.58113 24.8727
0.75257 -1.58253 24.9213
0.784063 -1.58293 24.9263
0.815407 -1.58184 24.9147
0.844459 -1.58269 24.8973
0.87461 -1.58227 24.88
0.907844 -1.57961 24.8746
0.939437 -1.57812 24.8632
0.973372 -1.57664 24.8762
-0.661368 -1.56164 25.1939
-0.630175 -1.56316 25.2201
-0.598406 -1.56225 25.1963
-0.568266 -1.56354 25.1844
-0.535799 -1.56299 25.1913
-0.503722 -1.56325 25.2074
-0.47008 -1.56168 25.2198
-0.299417 -1.53045 24.8557
-0.279998 -1.5421 24.8278
-0.248675 -1.54047 24.7979
-0.215676 -1.53676 24.7658
-0.184635 -1.53526 24.7356
-0.152724 -1.5311 24.6773
-0.117955 -1.52465 24.6363
-0.0873133 -1.52309 24.6027
-0.0555475 -1.52128 24.5873
-0.0251343 -1.52048 24.5645
0.00273573 -1.5228 24.5478
0.0328787 -1.52274 24.5337
0.061891 -1.52407 24.5222
0.0906143 -1.52462 24.4949
0.119553 -1.52595 24.4834
0.154955 -1.51897 24.4561
0.185904 -1.51939 24.4641
0.216864 -1.51982 24.472
0.247984 -1.51871 24.4615
0.276908 -1.5194 24.443
0.30671 -1.52018 24.4388
0.33891 -1.52001 24.4564
0.370026 -1.52031 24.4642
0.399662 -1.52109 24.4575
0.430745 -1.52183 24.4699
0.462324 -1.52206 24.4825
0.494655 -1.52153 24.4953
0.524922 -1.52526 24.5302
0.555919 -1.52889 24.5721
0.586973 -1.53453 24.6354
0.619279 -1.5407 24.7177
0.653069 -1.54444 24.7893
0.68504 -1.54701 24.8251
0.718072 -1.55082 24.8848
0.751531 -1.55269 24.9279
0.783794 -1.55231 24.9336
0.813766 -1.55224 24.9167
0.843625 -1.55083 24.8857
0.874721 -1.54833 24.8586
0.905244 -1.5484 24.8506
0.936886 -1.54879 24.8575
0.975457 -1.54278 24.8767
-0.632819 -1.53285 25.1805
-0.600169 -1.53276 25.2074
-0.568896 -1.53303 25.2009
-0.535674 -1.53151 25.2041
-0.502781 -1.53054 25.2121
-0.472679 -1.53186 25.2001
-0.442176 -1.53324 25.2008
-0.408228 -1.53034 25.1903
-0.247865 -1.50791 24.7925
-0.215241 -1.50419 24.7513
-0.185838 -1.50552 24.7397
-0.154119 -1.50335 24.712
-0.119437 -1.49616 24.6549
-0.0568576 -1.49182 24.591
-0.0277336 -1.49316 24.5795
0.0024464 -1.49303 24.5637
0.0364693 -1.48814 24.5402
0.0656787 -1.49036 24.5455
0.0956614 -1.49204 24.5553
0.125041 -1.48899 24.4854
0.153943 -1.49034 24.4739
0.185709 -1.48941 24.4752
0.216396 -1.48947 24.4738
0.247876 -1.4873 24.4541
0.276671 -1.48866 24.4426
0.30785 -1.48867 24.4482
0.340533 -1.48764 24.4618
0.369875 -1.4889 24.457
0.40113 -1.48839 24.4567
0.430845 -1.49163 24.4814
0.461004 -1.49339 24.4933
0.493345 -1.49285 24.5062
0.525704 -1.49231 24.5191
0.554702 -1.49947 24.5765
0.588144 -1.50203 24.6361
0.618567 -1.50906 24.7059
0.655398 -1.51051 24.7907
0.685595 -1.51448 24.8206
0.716088 -1.51756 24.8437
0.751497 -1.51935 24.9098
0.783932 -1.51826 24.9106
0.843303 -1.51891 24.879
0.873164 -1.51887 24.8621
0.904602 -1.51806 24.8554
0.93742 -1.51626 24.854
0.969639 -1.51507 24.8523
-0.601664 -1.50209 25.1934
-0.570421 -1.50357 25.2196
-0.53678 -1.50128 25.2146
-0.504508 -1.50102 25.2232
-0.474393 -1.50236 25.2112
-0.442414 -1.5014 25.1947
-0.413435 -1.5049 25.2049
-0.308427 -1.48186 24.9484
-0.249462 -1.47887 24.8032
-0.214434 -1.4717 24.7458
-0.185041 -1.47305 24.7342
-0.155677 -1.47439 24.7226
-0.120916 -1.46764 24.6736
-0.0218353 -1.45892 24.6358
0.00125913 -1.46536 24.5981
0.123188 -1.46027 24.4888
0.154167 -1.46068 24.4969
0.186111 -1.45941 24.496
0.217645 -1.45726 24.4763
0.247645 -1.45654 24.4537
0.277003 -1.45817 24.454
0.310077 -1.4558 24.4559
0.340878 -1.45676 24.4683
0.369633 -1.45815 24.4567
0.401895 -1.45758 24.4697
0.43201 -1.4612 24.5048
0.460978 -1.46369 24.5093
0.492662 -1.46402 24.5239
0.52666 -1.46393 24.5633
0.559437 -1.46766 24.63
0.59164 -1.47362 24.7125
0.620932 -1.48146 24.7771
0.65368 -1.48093 24.79
0.686445 -1.4804 24.8029
0.717316 -1.48415 24.8381
0.750196 -1.48582 24.8743
0.781877 -1.48727 24.8932
0.815048 -1.48541 24.8947
0.844001 -1.48686 24.8821
0.873778 -1.48553 24.8512
0.905419 -1.48508 24.8503
0.940337 -1.4825 24.8641
-0.603681 -1.47372 25.2294
-0.568145 -1.46896 25.2129
-0.536389 -1.47014 25.2463
-0.504689 -1.46933 25.2224
-0.47272 -1.46787 25.1912
-0.439119 -1.46645 25.208
-0.409226 -1.47008 25.2459
-0.251032 -1.45017 24.822
-0.214163 -1.43989 24.7412
-0.184238 -1.4406 24.7288
-0.154154 -1.44045 24.7038
-0.12017 -1.43712 24.7012
-0.0914353 -1.44009 24.7072
-0.0552874 -1.43232 24.6688
-0.0233442 -1.43004 24.6466
0.00581775 -1.43141 24.635
0.0349519 -1.43279 24.6235
0.0636955 -1.43308 24.5882
0.0928038 -1.43018 24.5109
0.123801 -1.43058 24.519
0.155895 -1.4296 24.5245
0.187364 -1.42718 24.4985
0.217419 -1.42648 24.4758
0.247738 -1.42644 24.4673
0.278338 -1.427 24.4716
0.310599 -1.42561 24.4743
0.340641 -1.426 24.4679
0.369611 -1.42776 24.4641
0.401627 -1.42788 24.4826
0.431766 -1.4304 24.5045
0.461959 -1.43293 24.5264
0.493054 -1.43444 24.5474
0.526813 -1.43393 24.5789
0.558794 -1.43869 24.6479
0.591015 -1.44455 24.7306
0.620993 -1.45144 24.7936
0.654881 -1.45094 24.8212
0.685195 -1.45137 24.8141
0.719191 -1.45222 24.8562
0.749064 -1.45379 24.8556
0.779603 -1.45474 24.8564
0.81392 -1.45263 24.8693
0.844563 -1.45221 24.857
0.873454 -1.45368 24.8444
0.90684 -1.45324 24.863
0.940228 -1.4512 24.8656
-0.566826 -1.43594 25.2214
-0.536562 -1.43843 25.2455
-0.504866 -1.43764 25.2216
-0.472094 -1.43581 25.2033
-0.440366 -1.43616 25.2121
-0.40866 -1.43695 25.2308
-0.323936 -1.4053 25.038
-0.217489 -1.41475 24.7913
-0.184055 -1.40876 24.7213
-0.153357 -1.40805 24.6984
-0.12173 -1.406 24.6708
-0.089483 -1.40246 24.63
-0.0603001 -1.40384 24.6185
-0.0279967 -1.40318 24.6321
0.00432628 -1.40253 24.6457
0.0324732 -1.40074 24.5628
0.0623697 -1.40005 24.5329
0.0933857 -1.40043 24.5411
0.125392 -1.39916 24.5403
0.155808 -1.39837 24.52
0.187144 -1.39638 24.4979
0.216018 -1.39778 24.4864
0.246348 -1.39775 24.4778
0.280413 -1.3955 24.4966
0.310492 -1.39589 24.4902
0.340555 -1.39629 24.4838
0.372153 -1.39656 24.4986
0.402755 -1.39818 24.5159
0.431525 -1.3996 24.5042
0.460645 -1.40419 24.5372
0.496684 -1.40263 24.5884
0.524171 -1.40931 24.6222
0.563453 -1.40679 24.7016
0.589736 -1.41559 24.7417
0.622167 -1.42141 24.8248
0.654961 -1.42085 24.8377
0.683947 -1.42233 24.8253
0.717463 -1.42164 24.8453
0.749615 -1.42123 24.8511
0.778557 -1.42271 24.8386
0.81143 -1.42218 24.8514
0.842942 -1.42267 24.8588
0.879173 -1.41704 24.8571
0.910994 -1.41743 24.8668
-0.53757 -1.40509 25.1687
-0.505093 -1.40632 25.229
-0.47216 -1.40523 25.2351
-0.440659 -1.40556 25.2363
-0.406711 -1.40394 25.2565
-0.37321 -1.39985 25.203
-0.186985 -1.38185 24.7433
-0.154902 -1.37908 24.709
-0.121335 -1.37362 24.6563
-0.0898967 -1.37212 24.6363
-0.0595236 -1.37157 24.6131
-0.0300477 -1.37223 24.595
-0.000614995 -1.37289 24.5769
0.0306734 -1.3709 24.5496
0.0613077 -1.37127 24.5506
0.0931684 -1.37032 24.5521
0.125427 -1.3682 24.5421
0.15682 -1.36622 24.52
0.185878 -1.36702 24.5015
0.215969 -1.36735 24.4937
0.248596 -1.36622 24.506
0.280291 -1.36573 24.5124
0.309126 -1.36717 24.5008
0.340829 -1.36669 24.5071
0.372448 -1.36695 24.5219
0.401506 -1.36881 24.5197
0.432689 -1.37088 24.5508
0.464228 -1.37338 24.5914
0.495633 -1.37416 24.6071
0.527338 -1.37945 24.6819
0.595899 -1.38916 24.8817
0.626569 -1.38925 24.874
0.655943 -1.39004 24.8579
0.686544 -1.3912 24.8619
0.718051 -1.39167 24.8695
0.7503 -1.38795 24.8399
0.785048 -1.38322 24.8303
0.8153 -1.38563 24.8436
0.844961 -1.38835 24.8531
0.873843 -1.38986 24.8406
-0.506445 -1.37467 25.1898
-0.472477 -1.37459 25.2593
-0.440951 -1.37492 25.2605
-0.409655 -1.37484 25.244
-0.380736 -1.37739 25.228
-0.189911 -1.35491 24.7653
-0.156443 -1.3501 24.7195
-0.121752 -1.34324 24.6625
-0.0925881 -1.34432 24.6431
-0.0593748 -1.3399 24.6057
-0.0289459 -1.33926 24.583
0.00014571 -1.34067 24.5715
0.0304215 -1.34105 24.5653
0.061466 -1.34142 24.5736
0.0945029 -1.3385 24.564
0.126445 -1.33602 24.542
0.1554 -1.33745 24.5305
0.187191 -1.33579 24.5203
0.218324 -1.33603 24.5282
0.250041 -1.33553 24.5346
0.278916 -1.33698 24.523
0.310642 -1.33649 24.5293
0.34211 -1.33724 24.5489
0.372595 -1.33749 24.5457
0.401412 -1.33895 24.534
0.432529 -1.34377 24.6009
0.464818 -1.34394 24.6217
0.50051 -1.34661 24.7221
0.528404 -1.34947 24.7126
0.555317 -1.35924 24.7744
0.592183 -1.36238 24.8885
0.622396 -1.36325 24.8837
0.661 -1.35953 24.9352
0.690086 -1.36103 24.9227
0.71785 -1.36116 24.8781
-0.472852 -1.34124 25.2034
-0.441121 -1.3432 25.2596
-0.411012 -1.34463 25.2476
-0.379476 -1.34446 25.2362
-0.181329 -1.31537 24.7925
-0.157828 -1.32208 24.7541
-0.123276 -1.3143 24.673
-0.0940279 -1.31573 24.6615
-0.0608727 -1.31102 24.6161
-0.030431 -1.3104 24.5934
-0.000120162 -1.31079 24.5872
0.0309425 -1.31114 24.5956
0.063021 -1.30986 24.5949
0.0960214 -1.30577 24.564
0.125016 -1.30722 24.5525
0.155462 -1.30721 24.544
0.188002 -1.30579 24.5502
0.219741 -1.30528 24.5567
0.248833 -1.30706 24.553
0.280401 -1.3067 24.5582
0.313509 -1.30575 24.5797
0.342396 -1.30722 24.568
0.370199 -1.31206 24.587
0.402319 -1.31344 24.6234
0.435025 -1.31313 24.6446
0.467524 -1.3125 24.6578
0.496442 -1.31991 24.7227
0.533988 -1.32647 24.8967
0.561079 -1.33151 24.8999
0.59553 -1.32687 24.8855
0.62701 -1.33114 24.9387
0.656986 -1.33272 24.9383
0.689809 -1.33162 24.9438
0.723735 -1.3271 24.9244
-0.440995 -1.30903 25.196
-0.409366 -1.31023 25.2274
-0.379314 -1.31167 25.2154
-0.350633 -1.31508 25.2155
-0.124796 -1.28534 24.6835
-0.0928818 -1.28271 24.6493
-0.0609072 -1.28066 24.6296
-0.0303426 -1.28045 24.6164
0.000369812 -1.28081 24.6175
0.0324788 -1.27953 24.6169
0.0630379 -1.27953 24.6084
0.0945836 -1.27693 24.5745
0.123591 -1.27839 24.563
0.157242 -1.27599 24.5732
0.18955 -1.2753 24.5867
0.218515 -1.27677 24.5752
0.250857 -1.27609 24.5886
0.281875 -1.27713 24.6053
0.309665 -1.28064 24.6048
0.3431 -1.28156 24.6578
0.375209 -1.28139 24.6721
0.406886 -1.28212 24.6917
0.469149 -1.28743 24.764
0.509349 -1.28949 24.9229
0.531372 -1.29734 24.8893
0.565765 -1.29362 24.8856
0.597896 -1.29282 24.8866
0.628438 -1.29535 24.9064
0.659568 -1.29597 24.9109
0.692802 -1.29569 24.932
0.72348 -1.29887 24.9598
-0.412445 -1.27902 25.1448
-0.379791 -1.28062 25.2218
-0.347283 -1.28003 25.2289
-0.0575145 -1.24784 24.6709
-0.0271122 -1.24824 24.6647
0.00206431 -1.24971 24.6532
0.0311041 -1.25087 24.6337
0.060216 -1.25235 24.6222
0.0890439 -1.2532 24.5948
0.121358 -1.25249 24.6084
0.153691 -1.25178 24.622
0.182721 -1.25327 24.6104
0.218457 -1.25038 24.6491
0.445968 -1.21274 24.7535
0.526425 -1.21964 24.6577
0.595456 -1.26489 24.8971
0.608765 -1.23184 24.2366
0.636261 -1.23465 24.2296
0.665036 -1.2396 24.2657
0.699457 -1.23247 24.2324
0.72868 -1.2349 24.2438
0.755914 -1.23896 24.2479
0.787955 -1.23877 24.2647
0.820353 -1.23503 24.2462
0.848488 -1.2387 24.2569
-0.411332 -1.24771 25.1946
-0.381319 -1.24918 25.1826
-0.346167 -1.24732 25.2382
-0.321385 -1.25493 25.2336
-0.284222 -1.24517 25.1377
-0.051544 -1.21333 24.7373
-0.0254414 -1.21704 24.7005
0.00218389 -1.21964 24.6763
0.0298656 -1.22254 24.6601
0.060109 -1.22266 24.6459
0.0942226 -1.2201 24.6616
0.122395 -1.22334 24.6627
0.15396 -1.2227 24.6617
0.185679 -1.22286 24.677
0.218066 -1.22323 24.7075
0.441813 -1.20044 24.967
0.473173 -1.23759 25.0032
0.500905 -1.23729 24.9422
0.578472 -1.20109 24.2386
0.606574 -1.20236 24.2206
0.637042 -1.20166 24.2115
0.666278 -1.20179 24.1961
0.695475 -1.20192 24.1806
0.726672 -1.20199 24.1912
0.758248 -1.20175 24.2027
0.787717 -1.20218 24.1948
0.818325 -1.20251 24.2002
0.849037 -1.20696 24.2522
0.87788 -1.20827 24.2456
-0.383016 -1.22053 25.2184
-0.347995 -1.21602 25.1945
-0.314289 -1.21213 25.1487
-0.282952 -1.21159 25.125
-0.24884 -1.20697 25.0779
-0.213638 -1.19859 24.97
-0.15183 -1.19667 24.8989
0.274507 -1.206 24.8273
0.313498 -1.20207 24.9015
0.344195 -1.20205 24.8902
0.375365 -1.20628 24.9508
0.404024 -1.20982 24.9574
0.438138 -1.21482 25.0725
0.517077 -1.1868 24.4547
0.549453 -1.17083 24.2659
0.576475 -1.17095 24.2161
0.605444 -1.17229 24.2115
0.63776 -1.17042 24.2137
0.667027 -1.16945 24.1848
0.695398 -1.17031 24.1671
0.724676 -1.17123 24.1626
0.756401 -1.17087 24.1753
0.787585 -1.17055 24.1813
0.816341 -1.17203 24.1765
0.847706 -1.17271 24.1956
0.880208 -1.17506 24.2466
0.909477 -1.17958 24.2803
-0.348718 -1.18372 25.1532
-0.31203 -1.17663 25.1115
-0.28029 -1.17472 25.0633
-0.247843 -1.17007 24.9664
-0.215398 -1.16757 24.9315
-0.185813 -1.16908 24.9198
-0.154644 -1.16801 24.8894
-0.124021 -1.16809 24.8734
-0.0943426 -1.17045 24.8861
0.158757 -1.1655 24.8488
0.188034 -1.16704 24.8369
0.216599 -1.17145 24.8606
0.246835 -1.17381 24.8803
0.28011 -1.17342 24.9097
0.31473 -1.16926 24.9017
0.346676 -1.17097 24.9389
0.377431 -1.17451 24.9822
0.40979 -1.17313 24.9769
0.46085 -1.14902 24.4417
0.489178 -1.15185 24.4432
0.518721 -1.14575 24.3403
0.546889 -1.14093 24.2376
0.573418 -1.1436 24.2141
0.605609 -1.13959 24.1866
0.637128 -1.13904 24.1949
0.66682 -1.13852 24.1775
0.695992 -1.13869 24.1621
0.725125 -1.13886 24.1467
0.75423 -1.13978 24.1403
0.78502 -1.14038 24.1526
0.817236 -1.1391 24.161
0.846321 -1.14002 24.1545
0.877773 -1.14242 24.1942
0.910355 -1.14733 24.2743
-0.351671 -1.15313 25.0841
-0.315429 -1.14697 25.0573
-0.281961 -1.14322 25.012
-0.24703 -1.13674 24.9395
-0.214155 -1.13429 24.9188
-0.181819 -1.13184 24.8841
-0.155049 -1.13733 24.8956
-0.125539 -1.13886 24.8839
-0.096578 -1.14156 24.8854
-0.06341 -1.13797 24.8517
-0.0314116 -1.13716 24.8516
6.55945e-005 -1.13705 24.8543
0.0297453 -1.13849 24.8474
0.0602154 -1.13877 24.8353
0.090582 -1.13922 24.8249
0.121831 -1.14024 24.8441
0.153294 -1.14015 24.8467
0.184277 -1.14105 24.857
0.214332 -1.14233 24.855
0.24907 -1.13951 24.8737
0.281597 -1.13849 24.8793
0.317154 -1.13163 24.845
0.345005 -1.13705 24.8705
0.374103 -1.1392 24.8656
0.408301 -1.13689 24.8799
0.428138 -1.12103 24.4523
0.456667 -1.1199 24.3992
0.487778 -1.11843 24.3843
0.516702 -1.11633 24.3273
0.545652 -1.11242 24.2478
0.573609 -1.11108 24.191
0.603646 -1.10872 24.1535
0.633319 -1.10821 24.1362
0.66293 -1.10825 24.1257
0.695244 -1.10624 24.1276
0.725038 -1.10733 24.1331
0.753172 -1.10891 24.1218
0.783475 -1.1092 24.1243
0.815386 -1.10803 24.1307
0.845192 -1.10914 24.1361
0.876147 -1.11016 24.1547
0.908502 -1.11314 24.2122
0.938239 -1.12013 24.2796
-0.379253 -1.11789 25.1115
-0.344549 -1.11276 25.0576
-0.312885 -1.11161 25.0273
-0.280802 -1.10668 24.9007
-0.248394 -1.10427 24.866
-0.218868 -1.1058 24.8545
-0.18937 -1.10733 24.8429
-0.155988 -1.10381 24.8138
-0.124808 -1.10589 24.8641
-0.0945296 -1.10654 24.8529
-0.0639075 -1.10623 24.8294
-0.0322195 -1.10526 24.8189
-0.000574461 -1.10488 24.8207
0.0320549 -1.10284 24.8107
0.0627973 -1.10316 24.8066
0.0924974 -1.10461 24.8019
0.122373 -1.10612 24.8023
0.156374 -1.10374 24.8162
0.186894 -1.10461 24.8179
0.216777 -1.10613 24.8182
0.251213 -1.10309 24.8275
0.283952 -1.10004 24.8041
0.3131 -1.10162 24.7923
0.34222 -1.10321 24.7804
0.371311 -1.10481 24.7685
0.426563 -1.08879 24.4047
0.456453 -1.08776 24.3758
0.485526 -1.08872 24.3635
0.516495 -1.08579 24.3265
0.545681 -1.07929 24.2132
0.57505 -1.07693 24.1637
0.603636 -1.0772 24.1397
0.632699 -1.07698 24.1174
0.661824 -1.07719 24.1022
0.691838 -1.07762 24.103
0.722525 -1.07785 24.1106
0.753758 -1.07736 24.1168
0.782793 -1.07758 24.1015
0.813907 -1.07761 24.1121
0.844407 -1.07865 24.1261
0.873815 -1.07918 24.1198
0.906344 -1.07989 24.1551
0.940587 -1.08544 24.2646
0.967519 -1.09051 24.2756
-0.381292 -1.08757 25.0758
-0.344069 -1.07976 25.0269
-0.310837 -1.07445 24.9182
-0.279512 -1.07349 24.8879
-0.247123 -1.0711 24.8532
