0.124436 -1.34621 24.6709
0.154757 -1.34559 24.6479
0.186216 -1.34291 24.6137
0.218553 -1.34153 24.6153
0.250918 -1.34059 24.624
0.281155 -1.341 24.6176
0.310107 -1.34245 24.6059
0.340305 -1.34287 24.5994
0.371444 -1.34327 24.6074
0.402594 -1.34368 24.6153
0.432763 -1.34411 24.6087
0.462915 -1.34454 24.6021
0.496409 -1.34392 24.6297
0.527869 -1.34332 24.6284
0.557007 -1.34788 24.6585
0.587528 -1.35141 24.6938
0.620153 -1.35081 24.7068
0.652795 -1.35022 24.7198
0.682578 -1.35275 24.7314
0.718176 -1.35526 24.8158
0.755403 -1.35313 24.866
0.78401 -1.36036 24.912
-0.343148 -1.31786 24.6929
-0.310868 -1.31831 24.7365
-0.280003 -1.31815 24.7257
-0.246946 -1.31663 24.7401
-0.215609 -1.3168 24.7488
-0.18617 -1.31861 24.7469
-0.153099 -1.31786 24.7756
-0.122894 -1.32035 24.804
-0.0923052 -1.32362 24.8546
-0.0623826 -1.32706 24.8915
-0.0323656 -1.3305 24.9283
0.00260175 -1.32466 24.8948
0.123137 -1.3176 24.6894
0.154773 -1.31512 24.6591
0.188037 -1.31166 24.6435
0.22007 -1.31025 24.6391
0.250782 -1.31065 24.64
0.279776 -1.31212 24.6283
0.308741 -1.31358 24.6165
0.33895 -1.31401 24.6101
0.370695 -1.31425 24.625
0.402543 -1.31377 24.6313
0.431441 -1.31525 24.6195
0.463297 -1.31478 24.6257
0.495109 -1.31503 24.6405
0.528305 -1.31353 24.652
0.55935 -1.31543 24.6757
0.588184 -1.32038 24.7056
0.619557 -1.32169 24.7247
0.655353 -1.31913 24.756
0.685959 -1.32339 24.7981
0.720823 -1.32407 24.8523
-0.341924 -1.28785 24.7583
-0.312464 -1.28832 24.7227
-0.280105 -1.28851 24.761
-0.246327 -1.28572 24.7636
-0.216909 -1.28715 24.7521
-0.185953 -1.28797 24.7655
-0.154639 -1.28878 24.7862
-0.121708 -1.28777 24.8052
-0.0912012 -1.29245 24.8839
-0.0616451 -1.29705 24.9357
-0.0312578 -1.29714 24.9161
0.00202307 -1.29342 24.8867
0.0303314 -1.29628 24.8775
0.127733 -1.28302 24.7187
0.156896 -1.2845 24.707
0.191296 -1.27878 24.6741
0.220359 -1.28025 24.6624
0.249393 -1.28173 24.6507
0.2784 -1.28322 24.6389
0.308645 -1.28365 24.6325
0.339815 -1.28403 24.6405
0.370996 -1.28443 24.6486
0.401213 -1.28487 24.642
0.431414 -1.28532 24.6355
0.463227 -1.28555 24.6504
0.495113 -1.28508 24.6566
0.527656 -1.28444 24.6698
0.559225 -1.28524 24.6871
0.588658 -1.29034 24.7274
0.622734 -1.28967 24.7593
0.659826 -1.28688 24.805
0.689649 -1.29241 24.8519
-0.311171 -1.25687 24.7532
-0.278774 -1.25723 24.797
-0.249322 -1.25836 24.7774
-0.217572 -1.25743 24.7702
-0.186519 -1.25801 24.7804
-0.156176 -1.25968 24.7967
-0.122515 -1.25786 24.8161
-0.0923594 -1.2626 24.8895
-0.0606094 -1.25859 24.8183
-0.0314738 -1.26249 24.8487
0.0017507 -1.26074 24.8569
0.0315579 -1.26342 24.8761
0.0657208 -1.25603 24.7997
0.0950009 -1.25751 24.7879
0.126717 -1.25493 24.7534
0.155762 -1.25611 24.7336
0.218961 -1.2513 24.673
0.248008 -1.2528 24.6613
0.277027 -1.2543 24.6495
0.307284 -1.25474 24.6431
0.338465 -1.25512 24.6512
0.369656 -1.2555 24.6592
0.400901 -1.25452 24.6485
0.431774 -1.25546 24.659
0.463609 -1.25568 24.674
0.495123 -1.25509 24.6727
0.527007 -1.25532 24.6876
0.558942 -1.25484 24.6938
0.590689 -1.25958 24.7628
0.620144 -1.26169 24.7649
-0.2822 -1.22861 24.7671
-0.250864 -1.22957 24.796
-0.21704 -1.22677 24.7986
-0.185982 -1.22801 24.8242
-0.153945 -1.22744 24.8311
-0.122165 -1.22756 24.8469
-0.0898899 -1.22467 24.8091
-0.0601916 -1.22619 24.8057
-0.0299771 -1.22735 24.8065
0.000143675 -1.22949 24.8244
0.0342191 -1.2262 24.8218
0.0667881 -1.22287 24.7875
0.0960502 -1.22437 24.7758
0.125284 -1.22587 24.7641
0.157282 -1.22534 24.7707
0.184136 -1.22979 24.7645
0.25363 -1.2197 24.7304
0.282343 -1.22062 24.7027
0.312351 -1.22111 24.6913
0.343744 -1.21939 24.6709
0.374158 -1.21936 24.6598
0.404323 -1.22078 24.6661
0.43527 -1.22119 24.6702
0.469045 -1.21902 24.682
0.498024 -1.22195 24.6902
0.528757 -1.22432 24.7166
0.561791 -1.22411 24.7418
0.589932 -1.23108 24.788
0.624421 -1.23227 24.8492
0.651435 -1.23789 24.8593
-0.279097 -1.19451 24.7827
-0.249481 -1.19817 24.8321
-0.217048 -1.19708 24.8381
-0.187524 -1.19886 24.8347
-0.155214 -1.19701 24.819
-0.123233 -1.1938 24.7657
-0.0926919 -1.19422 24.7595
-0.0613292 -1.19496 24.7802
-0.0300879 -1.19519 24.7863
-0.000770004 -1.1967 24.7747
0.0312857 -1.19692 24.7979
0.0672427 -1.1897 24.7613
0.0969117 -1.19083 24.7516
0.126321 -1.19279 24.7519
0.155732 -1.19474 24.7522
0.189731 -1.19203 24.76
0.218178 -1.19685 24.7903
0.246828 -1.1975 24.7543
0.403662 -1.19269 24.7007
0.506612 -1.19013 24.8141
1.06546 -1.2043 25.2818
1.06444 -1.21088 24.9734
1.09397 -1.21298 24.9726
1.12603 -1.21294 24.979
1.15869 -1.21586 25.0207
1.18756 -1.21751 25.0077
-0.277627 -1.16603 24.9043
-0.250271 -1.16541 24.7699
-0.216163 -1.16488 24.8404
-0.186305 -1.16569 24.8221
-0.154132 -1.1632 24.7876
-0.123631 -1.16328 24.7718
-0.0930719 -1.16292 24.7484
-0.0623549 -1.16307 24.7414
-0.0294338 -1.16181 24.7569
0.00128454 -1.16176 24.746
0.0308618 -1.16413 24.7586
0.0607746 -1.1639 24.7273
0.0943166 -1.15923 24.6899
0.126949 -1.15889 24.7157
0.156532 -1.16126 24.7281
0.185674 -1.1628 24.7164
0.217438 -1.16563 24.7773
0.248831 -1.16721 24.8075
0.275694 -1.1717 24.8012
0.9825 -1.18501 25.1862
1.00472 -1.19358 25.1633
1.02998 -1.17756 24.92
1.05952 -1.18025 24.9262
1.09401 -1.17676 24.9263
1.12421 -1.17807 24.926
1.15714 -1.18115 24.9735
1.19169 -1.18418 25.0369
1.22261 -1.18869 25.0735
-0.248519 -1.13603 24.8744
-0.215669 -1.13246 24.8254
-0.182697 -1.12928 24.7933
-0.152925 -1.13011 24.7751
-0.121976 -1.1291 24.7451
-0.0926596 -1.13062 24.7336
-0.0622704 -1.13072 24.7178
-0.0311004 -1.13016 24.7072
0.00148415 -1.12866 24.7106
0.0327507 -1.12846 24.7107
0.0632264 -1.12894 24.7066
0.0951868 -1.12586 24.6657
0.124289 -1.1274 24.6542
0.157218 -1.12762 24.6973
0.186685 -1.12981 24.7043
0.215512 -1.13205 24.6992
0.246165 -1.13497 24.7408
0.28099 -1.13595 24.8258
0.31089 -1.13726 24.8227
0.341939 -1.13815 24.8335
0.373781 -1.13878 24.8535
0.811685 -1.1547 25.0408
0.843657 -1.15222 25.0179
0.878796 -1.14937 25.0322
0.910613 -1.15503 25.0998
0.943188 -1.15827 25.1478
0.970644 -1.14916 24.9966
0.998428 -1.14943 24.9545
1.02969 -1.14505 24.9064
1.05942 -1.14528 24.8895
1.09165 -1.14486 24.8953
1.12403 -1.14512 24.9098
1.15683 -1.14671 24.9417
1.18945 -1.14938 24.9815
1.22459 -1.15194 25.0467
1.25553 -1.15556 25.0748
-0.251301 -1.10698 24.8506
-0.213862 -1.09855 24.8081
-0.184929 -1.09972 24.7721
-0.154046 -1.09941 24.7566
-0.12355 -1.09969 24.7457
-0.0907269 -1.09688 24.7235
-0.0611135 -1.09775 24.7054
-0.0315434 -1.09862 24.6872
-0.00118395 -1.09832 24.664
0.0315329 -1.09689 24.6734
0.0637512 -1.09609 24.6838
0.0962559 -1.09295 24.6535
0.12534 -1.09451 24.642
0.154738 -1.09667 24.6491
0.189745 -1.09233 24.6509
0.216778 -1.09842 24.6805
0.248346 -1.10079 24.7318
0.279783 -1.10317 24.7782
0.310505 -1.10517 24.8029
0.340426 -1.10778 24.8218
0.373243 -1.10721 24.8408
0.404413 -1.11123 24.9013
0.43501 -1.11445 24.9377
0.475223 -1.11543 25.0994
0.509901 -1.11264 25.109
0.778532 -1.11863 24.9643
0.81237 -1.11712 24.9787
0.845506 -1.11261 24.9481
0.875038 -1.11468 24.9476
0.904884 -1.11698 24.9538
0.939059 -1.11452 24.9609
0.970848 -1.11247 24.9428
1.00159 -1.1113 24.9218
1.03044 -1.11297 24.9092
1.05926 -1.11465 24.8965
1.08941 -1.1142 24.8777
1.12129 -1.11534 24.8957
1.15681 -1.11375 24.9274
1.18836 -1.1171 24.9626
1.22118 -1.11872 24.9938
1.25524 -1.12323 25.0658
-0.282339 -1.07817 24.9356
-0.251228 -1.07448 24.8171
-0.214918 -1.06799 24.7943
-0.185612 -1.06878 24.7586
-0.154526 -1.06844 24.748
-0.122583 -1.0664 24.7191
-0.0915372 -1.0656 24.6984
-0.0611467 -1.0659 24.6875
-0.0296387 -1.06495 24.6772
0.000704838 -1.06469 24.6541
0.0303237 -1.06596 24.648
0.0632946 -1.06417 24.6562
0.0973296 -1.06007 24.6412
0.126395 -1.06164 24.6298
0.155433 -1.06322 24.6183
0.185687 -1.06369 24.6121
0.217396 -1.06492 24.6497
0.245508 -1.06958 24.675
0.27746 -1.07196 24.7339
0.310265 -1.07208 24.7677
0.34088 -1.07409 24.791
0.374304 -1.07427 24.8341
0.404482 -1.07709 24.8597
0.437306 -1.08278 24.9744
0.469142 -1.08716 25.0475
0.504288 -1.08246 25.0383
0.536553 -1.08705 25.1171
0.568647 -1.08534 25.1007
0.777961 -1.08763 24.9631
0.809156 -1.08542 24.9329
0.842722 -1.08212 24.9229
0.875326 -1.08117 24.9281
0.905579 -1.0817 24.9194
0.937057 -1.08204 24.9247
0.969947 -1.08129 24.9353
0.99883 -1.08298 24.9227
1.03016 -1.08053 24.8955
1.05964 -1.08038 24.8713
1.0884 -1.08207 24.8587
1.12295 -1.0804 24.8794
1.15375 -1.08262 24.896
1.18353 -1.08562 24.9085
1.21923 -1.08454 24.9465
1.25326 -1.08631 24.9929
1.28691 -1.09068 25.0589
-0.253394 -1.04519 24.8025
-0.216537 -1.03809 24.7802
-0.186891 -1.03817 24.7344
-0.156818 -1.03842 24.7096
-0.12488 -1.03634 24.6802
-0.0934043 -1.03594 24.6823
-0.0603378 -1.0331 24.6676
-0.0297178 -1.03309 24.657
0.00107201 -1.03257 24.6392
0.0301916 -1.03414 24.6278
0.0620611 -1.0333 24.6309
0.0922803 -1.03277 24.6022
0.124999 -1.03063 24.5985
0.156477 -1.03041 24.606
0.185469 -1.032 24.5946
0.215641 -1.03316 24.6002
0.249894 -1.03002 24.6102
0.276625 -1.03909 24.6873
0.308262 -1.04062 24.7251
0.341342 -1.04049 24.7602
0.371225 -1.04306 24.779
0.403032 -1.04391 24.8042
0.436819 -1.04522 24.8703
0.468664 -1.04935 24.9436
0.497589 -1.05763 25.0252
0.536737 -1.0479 25.0101
0.56571 -1.05434 25.0627
0.599145 -1.06636 25.2629
0.809268 -1.05141 24.9034
0.839984 -1.0507 24.886
0.872292 -1.05008 24.8919
0.904717 -1.04955 24.9001
0.934266 -1.05096 24.8929
0.967879 -1.05139 24.9271
1.00023 -1.04958 24.9192
1.03069 -1.04804 24.8908
1.0604 -1.04834 24.8741
1.08915 -1.05005 24.8615
1.11924 -1.04965 24.8427
1.15163 -1.04973 24.8565
1.18385 -1.05044 24.8747
1.21671 -1.05159 24.9036
1.2487 -1.05508 24.9454
1.28349 -1.05941 25.0253
1.31758 -1.06167 25.0752
-0.253611 -1.01475 24.8197
-0.219586 -1.00982 24.7654
-0.187249 -1.00667 24.7119
-0.155705 -1.00545 24.692
-0.125216 -1.00523 24.6689
-0.0949233 -1.00537 24.6513
-0.0626275 -1.00278 24.6223
-0.0315621 -1.00304 24.6311
0.000624605 -1.00195 24.6371
0.0320742 -1.00059 24.6178
0.0616344 -1.00188 24.6118
0.0929853 -0.999303 24.566
0.124133 -0.997732 24.5388
0.153688 -0.99922 24.5394
0.188543 -0.994887 24.5414
0.217822 -0.997027 24.5485
0.247117 -0.999172 24.5556
0.278044 -1.00338 24.6328
0.309405 -1.0057 24.6815
0.340631 -1.00819 24.7277
0.371828 -1.0097 24.755
0.405246 -1.00978 24.7981
0.435208 -1.01234 24.817
0.466469 -1.01614 24.8774
0.497875 -1.01997 24.9381
0.534054 -1.01639 24.9654
0.566145 -1.0149 24.9548
0.595812 -1.02394 25.057
0.629727 -1.03434 25.2415
0.663334 -1.03528 25.2834
0.809292 -1.02039 24.9091
0.839132 -1.01961 24.8783
0.870985 -1.01869 24.8746
0.902626 -1.01895 24.8821
0.934815 -1.01848 24.8882
0.968377 -1.01814 24.9133
1.00077 -1.01707 24.9144
1.03052 -1.01739 24.8977
1.06011 -1.01598 24.8603
1.08885 -1.01771 24.8478
1.11821 -1.01762 24.8237
1.14823 -1.01819 24.8149
1.18278 -1.01838 24.8557
1.21325 -1.02106 24.8736
1.24659 -1.02241 24.9102
1.27937 -1.02593 24.9609
1.31691 -1.02744 25.0434
-0.281386 -0.980092 24.8342
-0.250505 -0.979422 24.7991
-0.21918 -0.977798 24.7522
-0.186504 -0.974796 24.7134
-0.155591 -0.973964 24.6836
-0.124756 -0.973133 24.6539
-0.0933415 -0.971944 24.6341
-0.0641775 -0.973536 24.6228
-0.0319696 -0.971483 24.6058
0.000385198 -0.969634 24.5991
0.0316035 -0.969261 24.5978
0.0625641 -0.968779 24.5874
0.0940727 -0.966598 24.5536
0.125495 -0.96442 24.5199
0.154402 -0.966029 24.5087
0.184333 -0.966263 24.4932
0.21404 -0.967178 24.487
0.245048 -0.967638 24.5002
0.280646 -0.96594 24.5678
0.309636 -0.972866 24.6548
0.340958 -0.972068 24.6467
0.371164 -0.975059 24.6829
0.402301 -0.978939 24.7497
0.434457 -0.980088 24.7874
0.466197 -0.982442 24.835
0.498455 -0.98557 24.9021
0.53055 -0.985909 24.9204
0.562416 -0.983482 24.8927
0.595488 -0.984559 24.9374
0.625543 -0.996363 25.0857
0.660369 -1.00363 25.2397
0.693581 -1.00159 25.2344
0.741603 -0.974323 25.111
0.807854 -0.992639 24.9355
0.838928 -0.988961 24.885
0.870386 -0.988297 24.8787
0.902376 -0.988198 24.8868
0.934632 -0.987822 24.8949
0.966674 -0.988504 24.9123
0.999671 -0.987788 24.9255
1.02907 -0.985719 24.8765
1.05921 -0.984673 24.8501
1.08937 -0.985296 24.8431
1.11807 -0.987041 24.8305
1.14818 -0.987671 24.8234
1.1805 -0.987852 24.838
1.21531 -0.98743 24.875
1.24559 -0.993145 24.9214
1.28091 -0.991711 24.9517
1.31414 -0.995644 25.011
1.34728 -0.996756 25.0401
-0.284881 -0.951799 24.7985
-0.250661 -0.947905 24.7814
-0.218482 -0.945491 24.7391
-0.186374 -0.9433 24.7049
-0.155475 -0.942501 24.6751
-0.122787 -0.939572 24.6436
-0.0932474 -0.940546 24.6257
-0.0625636 -0.93976 24.5961
-0.0322816 -0.940197 24.5886
0.00258863 -0.935683 24.5854
0.0336874 -0.935489 24.5858
0.063983 -0.935434 24.5683
0.0951647 -0.933919 24.5412
0.123705 -0.934909 24.5062
0.153814 -0.934663 24.4838
0.184092 -0.934726 24.4732
0.213424 -0.936045 24.4672
0.24352 -0.936901 24.4691
0.27698 -0.93523 24.4944
0.308195 -0.938658 24.5665
0.341004 -0.938318 24.5987
0.373246 -0.942175 24.6927
0.404584 -0.941396 24.6845
0.432854 -0.947312 24.7314
0.465884 -0.947035 24.7622
0.497319 -0.951658 24.8413
0.527953 -0.954675 24.8776
0.563068 -0.951024 24.8874
0.592973 -0.952602 24.8874
0.627284 -0.957535 25.0093
0.662415 -0.965203 25.1785
0.694316 -0.969809 25.2467
0.72176 -0.973703 25.2327
0.718952 -0.984271 24.8426
0.871537 -0.955928 24.8828
0.902689 -0.956534 24.888
0.934338 -0.956119 24.8876
0.966014 -0.957864 24.9131
1.00028 -0.954652 24.914
1.03079 -0.952573 24.8791
1.05957 -0.954329 24.8666
1.08831 -0.956088 24.854
1.11703 -0.95785 24.8415
1.14919 -0.957398 24.8474
1.18153 -0.957563 24.862
1.21526 -0.956529 24.88
1.24682 -0.958546 24.9037
1.27845 -0.9617 24.9389
1.31516 -0.96209 25.0031
1.35083 -0.963706 25.066
-0.287382 -0.923254 24.7917
-0.250521 -0.916131 24.7647
-0.217205 -0.91259 24.7262
-0.186241 -0.911824 24.6964
-0.153484 -0.908928 24.6648
-0.122317 -0.907551 24.6284
-0.09315 -0.909168 24.6172
-0.0629119 -0.909409 24.6018
-0.0310728 -0.907594 24.58
-0.00174692 -0.908471 24.557
0.0294077 -0.906803 24.5232
0.0620866 -0.905627 24.5442
0.0936466 -0.904807 24.5433
0.121257 -0.904437 24.4528
0.151175 -0.904743 24.4391
0.182053 -0.904989 24.4477
0.21418 -0.904112 24.4616
0.242969 -0.905757 24.4503
0.275403 -0.905194 24.4759
0.305473 -0.908235 24.5185
0.338476 -0.908122 24.5613
0.371587 -0.908023 24.6042
0.400961 -0.910177 24.6111
0.430351 -0.912335 24.6181
0.465983 -0.913116 24.7187
0.495042 -0.917613 24.7548
0.528681 -0.918768 24.818
0.560548 -0.919209 24.8363
0.593132 -0.919027 24.8567
0.628784 -0.921031 24.9601
0.660483 -0.934358 25.1599
0.692646 -0.938082 25.2213
0.723094 -0.939534 25.2212
0.718742 -0.955757 24.8772
0.867871 -0.930289 24.9033
0.901413 -0.928251 24.9092
0.93439 -0.927494 24.9226
0.968181 -0.927177 24.952
1.00004 -0.923445 24.9137
1.02971 -0.923311 24.89
1.0585 -0.925085 24.8775
1.08817 -0.92547 24.8608
1.11689 -0.927248 24.8483
1.14861 -0.925722 24.837
1.18269 -0.923659 24.8491
1.21287 -0.925508 24.8556
1.2444 -0.92749 24.8792
1.27819 -0.928234 24.9157
1.31103 -0.93009 24.9516
1.34697 -0.932861 25.0306
-0.286621 -0.891288 24.7931
-0.248477 -0.882453 24.7542
-0.217054 -0.881102 24.7176
-0.184229 -0.878239 24.686
-0.152989 -0.876902 24.6496
-0.120336 -0.874058 24.6181
-0.0908359 -0.875077 24.6003
-0.0617216 -0.87671 24.5891
-0.0300317 -0.87463 24.5554
-0.00100178 -0.876268 24.5442
0.0302263 -0.874817 24.5172
0.0596623 -0.876133 24.5114
0.0908912 -0.873786 24.466
0.119753 -0.875431 24.4548
0.148588 -0.87708 24.4436
0.181778 -0.873509 24.4253
0.213626 -0.87333 24.4484
0.243722 -0.873865 24.4446
0.27354 -0.875779 24.4622
0.306577 -0.875768 24.5116
0.33897 -0.875028 24.5307
0.368744 -0.877614 24.5562
0.400607 -0.8786 24.5936
0.432956 -0.879941 24.645
0.464004 -0.879027 24.6303
0.495296 -0.882667 24.6969
0.525961 -0.88574 24.7397
0.558858 -0.884049 24.7446
0.59115 -0.887932 24.8253
0.625146 -0.889255 24.893
0.665582 -0.898678 25.1865
0.691767 -0.90556 25.1962
0.725466 -0.905548 25.2283
0.721168 -0.923161 24.899
1.02906 -0.894238 24.9089
1.05836 -0.894434 24.8842
1.08783 -0.893835 24.8535
1.11724 -0.893236 24.8229
1.1468 -0.893643 24.8063
1.18054 -0.892635 24.8264
1.21178 -0.893566 24.8365
1.24285 -0.895997 24.8599
1.27573 -0.898301 24.9028
1.30957 -0.897903 24.9278
1.34809 -0.899408 25.025
-0.317086 -0.860394 24.8409
-0.281856 -0.854756 24.7916
-0.247914 -0.850336 24.7388
-0.214635 -0.8469 24.7004
-0.18181 -0.843714 24.6564
-0.151111 -0.842935 24.6185
-0.119925 -0.841898 24.5933
-0.089622 -0.842392 24.5875
-0.0594262 -0.842676 24.5722
-0.028854 -0.842013 24.5427
0.000157192 -0.843663 24.5316
0.030605 -0.842998 24.5023
0.0606122 -0.84329 24.4869
0.0895126 -0.844948 24.4758
0.119448 -0.845249 24.4605
0.151251 -0.843731 24.4521
0.185561 -0.83952 24.4471
0.215201 -0.840466 24.4411
0.243961 -0.842138 24.4299
0.276521 -0.841938 24.4679
0.305727 -0.844971 24.4937
0.336939 -0.845443 24.5117
0.369201 -0.84456 24.5255
0.39929 -0.847373 24.5615
0.431638 -0.846501 24.5753
0.462481 -0.849036 24.6184
0.492886 -0.851384 24.6478
0.525439 -0.851878 24.685
0.556715 -0.855315 24.7451
0.588628 -0.857048 24.7867
0.625515 -0.855921 24.869
0.653624 -0.857098 24.8327
0.723527 -0.872929 25.1846
0.72795 -0.889469 24.9769
0.744773 -0.891206 24.7681
0.818569 -0.867811 25.1148
0.847738 -0.869611 25.1021
0.906247 -0.871464 25.0579
0.937997 -0.871835 25.0657
1.02673 -0.866617 24.923
1.05803 -0.862784 24.8769
1.0875 -0.862218 24.8462
1.11711 -0.862643 24.8296
1.14577 -0.864454 24.8171
1.17953 -0.863423 24.8373
1.21167 -0.862959 24.8433
1.24393 -0.86301 24.8559
1.27622 -0.86587 24.8982
1.30786 -0.86828 24.9268
1.34219 -0.871747 24.9967
1.38022 -0.864874 25.0026
-0.318589 -0.83026 24.8098
-0.280122 -0.821243 24.7718
-0.245464 -0.81613 24.7215
-0.21337 -0.813934 24.6793
-0.186164 -0.817007 24.635
-0.155331 -0.81553 24.5766
-0.123692 -0.814681 24.576
-0.0898341 -0.811325 24.574
-0.0594398 -0.811155 24.5517
-0.0276718 -0.809421 24.53
0.00132074 -0.811084 24.519
0.0302865 -0.81275 24.5079
0.0592255 -0.81442 24.4968
0.0881375 -0.816094 24.4856
0.118251 -0.815945 24.4633
0.151914 -0.812383 24.4557
0.186121 -0.80861 24.4579
0.214913 -0.810293 24.4468
0.243678 -0.811981 24.4356
0.276086 -0.811325 24.4613
0.30593 -0.81321 24.479
0.336222 -0.816255 24.5287
0.367913 -0.815653 24.5355
0.399626 -0.815056 24.5424
0.432557 -0.81387 24.5631
0.460789 -0.817828 24.5806
0.492304 -0.818914 24.6115
0.525919 -0.818843 24.661
0.555953 -0.821396 24.6851
0.586882 -0.824493 24.7332
0.619342 -0.825794 24.7778
0.6525 -0.825935 24.8149
0.681756 -0.829857 24.8407
0.743246 -0.845185 25.0458
0.74524 -0.870412 24.9199
0.778458 -0.850395 24.6774
0.844917 -0.841916 25.112
0.874069 -0.843737 25.0993
0.909057 -0.839154 25.0901
0.940599 -0.839532 25.0947
0.970069 -0.841554 25.0901
1.00131 -0.835286 25.0079
1.02691 -0.835604 24.9307
1.0578 -0.831636 24.8765
1.08736 -0.831593 24.8529
1.11607 -0.833419 24.8404
1.14619 -0.834095 24.8334
1.17852 -0.834191 24.8481
1.21067 -0.83372 24.8542
1.24451 -0.832676 24.8743
1.27701 -0.834052 24.9036
1.30688 -0.838336 24.9312
1.34528 -0.835903 24.9887
1.37639 -0.840083 25.0275
-0.314363 -0.793824 24.7819
-0.279192 -0.788965 24.7655
-0.244147 -0.783327 24.7084
-0.214917 -0.784507 24.673
-0.187819 -0.787153 24.6045
-0.156836 -0.786387 24.5784
-0.125385 -0.785011 24.5514
-0.0959585 -0.786093 24.5337
-0.0616801 -0.781782 24.5185
-0.0302837 -0.781648 24.5345
0.001002 -0.780816 24.5245
0.0311186 -0.780816 24.5018
0.0600472 -0.7825 24.4907
0.0889489 -0.784187 24.4796
0.121135 -0.78235 24.4729
0.15472 -0.779222 24.4736
0.184779 -0.779763 24.4678
0.213582 -0.781463 24.4566
0.243605 -0.782012 24.4507
0.275069 -0.781927 24.4663
0.306675 -0.781306 24.4733
0.336928 -0.783851 24.5132
0.36887 -0.783099 24.5233
0.397634 -0.784827 24.5119
0.428455 -0.786769 24.5483
0.460076 -0.786652 24.5617
0.492823 -0.786009 24.5874
0.523344 -0.78891 24.6301
0.556807 -0.788642 24.673
0.584225 -0.794473 24.7022
0.61787 -0.794224 24.7452
0.650981 -0.793615 24.7709
0.681705 -0.796438 24.807
0.712182 -0.798408 24.8244
0.745355 -0.815915 25.1144
0.787416 -0.809775 25.1976
0.819313 -0.807904 25.1744
0.848379 -0.807322 25.1257
0.880928 -0.806173 25.1246
0.910067 -0.808014 25.1119
0.941642 -0.806441 25.0911
0.971576 -0.806415 25.0671
1.05299 -0.80738 24.8967
1.08675 -0.802512 24.8717
1.11717 -0.80286 24.864
1.14927 -0.802034 24.8651
1.18054 -0.802432 24.8696
1.21057 -0.80309 24.8609
1.24198 -0.803423 24.8661
1.27574 -0.802927 24.8912
1.31096 -0.803553 24.9452
1.34356 -0.80622 24.9878
1.37677 -0.805471 25.0008
-0.31077 -0.758336 24.7617
-0.277851 -0.756133 24.7523
-0.2457 -0.753727 24.6939
-0.219013 -0.757212 24.6331
-0.187453 -0.755719 24.5991
-0.155572 -0.753792 24.5655
-0.124888 -0.753215 24.5361
-0.0947321 -0.753545 24.5209
-0.0645241 -0.754063 24.5152
-0.0310096 -0.750637 24.5017
0.00175781 -0.748137 24.4926
0.0315116 -0.749084 24.4867
0.06042 -0.75078 24.4757
0.0893018 -0.75248 24.4646
0.120439 -0.751672 24.4547
0.151847 -0.751548 24.4705
0.18344 -0.7509 24.4776
0.212255 -0.752615 24.4664
0.242289 -0.753173 24.4605
0.275343 -0.751875 24.4891
0.305376 -0.752441 24.4832
0.337013 -0.751819 24.4901
0.36856 -0.751732 24.5056
0.398578 -0.752312 24.4996
0.429895 -0.753289 24.5293
0.460985 -0.754084 24.5495
0.49121 -0.756783 24.5856
0.523617 -0.755876 24.5994
0.55478 -0.759082 24.6593
0.58916 -0.759256 24.7263
0.618694 -0.761421 24.7331
0.648244 -0.763589 24.7399
0.682032 -0.763303 24.783
0.713981 -0.764361 24.8127
0.746791 -0.784551 25.1428
0.788793 -0.774044 25.1619
0.8509 -0.774874 25.1548
0.881375 -0.775043 25.1388
0.911426 -0.775045 25.1147
0.941359 -0.774572 25.0835
0.971348 -0.775048 25.0667
0.999512 -0.778771 25.0653
1.03314 -0.771537 25.0043
1.06346 -0.767448 24.9377
1.08951 -0.770387 24.9002
1.11831 -0.771651 24.8811
1.15105 -0.76923 24.8718
1.18156 -0.76904 24.8595
1.21022 -0.770908 24.847
1.24379 -0.770924 24.8763
1.27476 -0.773619 24.9021
1.3086 -0.773102 24.9272
1.34074 -0.776174 24.9693
1.37584 -0.776041 25.0119
-0.307334 -0.723228 24.7495
-0.277657 -0.724513 24.7337
-0.247293 -0.723742 24.6551
-0.218115 -0.725007 24.6198
-0.186165 -0.723117 24.5861
-0.154303 -0.721225 24.5525
-0.125217 -0.722918 24.5415
-0.0950559 -0.723271 24.5263
-0.064498 -0.722742 24.497
-0.0317317 -0.719695 24.469
-0.000382483 -0.719527 24.485
0.0312053 -0.718846 24.4923
0.0601187 -0.720557 24.4812
0.0890053 -0.722272 24.4701
0.119086 -0.72282 24.4644
0.150502 -0.722678 24.4802
0.182104 -0.722022 24.4874
0.210931 -0.723752 24.4762
0.240975 -0.724318 24.4703
0.272456 -0.724197 24.486
0.304081 -0.72356 24.493
0.334754 -0.723215 24.4827
0.365656 -0.724034 24.5026
0.397312 -0.723412 24.5096
0.4302 -0.722151 24.5304
0.461899 -0.72154 24.5373
0.492053 -0.724576 24.5792
0.522387 -0.726868 24.6095
0.555243 -0.726177 24.6352
0.586512 -0.729323 24.6953
0.619522 -0.728643 24.721
0.653244 -0.728302 24.7642
0.682195 -0.732919 24.7988
0.719392 -0.729141 24.8457
0.751001 -0.74983 25.1689
0.787256 -0.74621 25.1932
0.820877 -0.743543 25.1866
0.85012 -0.745414 25.1739
0.880243 -0.745441 25.1498
0.912102 -0.74178 25.1029
0.970255 -0.745532 25.0776
1.00075 -0.745812 25.0657
1.02997 -0.745607 25.0296
1.06387 -0.736478 24.9494
1.08847 -0.741058 24.911
1.1195 -0.73952 24.8882
1.15145 -0.736925 24.866
1.18208 -0.736691 24.8546
1.21219 -0.737403 24.8476
1.24298 -0.7396 24.8664
1.27526 -0.741226 24.8973
1.30689 -0.743502 24.9261
1.34971 -0.73831 25.0104
-0.3117 -0.696604 24.7212
-0.282333 -0.698307 24.7101
-0.248823 -0.694253 24.6405
-0.217189 -0.692964 24.6134
-0.184872 -0.690543 24.5731
-0.155749 -0.692248 24.5621
-0.124322 -0.690973 24.5352
-0.093365 -0.68991 24.4993
-0.0632802 -0.69028 24.4842
-0.0343238 -0.691993 24.4732
-0.00177438 -0.690628 24.4946
0.0298222 -0.689939 24.5019
0.059822 -0.69033 24.4867
0.0887134 -0.692059 24.4756
0.117578 -0.693792 24.4645
0.150666 -0.691505 24.4735
0.181594 -0.691329 24.4739
0.210657 -0.693535 24.4817
0.241023 -0.693277 24.4643
0.273239 -0.692337 24.4807
0.305086 -0.691114 24.4806
0.334072 -0.692309 24.4628
0.366038 -0.69191 24.4833
0.398041 -0.691513 24.5038
0.428341 -0.693542 24.5333
0.460655 -0.692591 24.5473
0.493007 -0.691648 24.5611
0.523271 -0.694276 24.5972
0.553625 -0.69691 24.6334
0.589766 -0.695986 24.7197
0.618321 -0.699492 24.7313
0.650963 -0.698576 24.7451
0.683033 -0.70191 24.8175
0.714923 -0.702404 24.8378
0.757206 -0.715178 25.2326
0.789053 -0.713191 25.2045
0.819722 -0.713878 25.1975
0.848978 -0.715766 25.1848
0.880026 -0.713985 25.1492
0.910986 -0.71221 25.1137
0.940091 -0.714101 25.1011
0.9701 -0.714623 25.0842
0.999757 -0.715605 25.0687
1.02949 -0.715491 25.0407
1.0641 -0.707525 24.9845
1.09329 -0.705341 24.9252
1.12287 -0.705423 24.9015
1.15239 -0.705505 24.8779
1.18108 -0.707402 24.8654
1.2112 -0.708124 24.8584
1.24346 -0.708713 24.8781
1.27986 -0.706212 24.9152
1.31224 -0.706747 24.9341
1.34441 -0.710289 24.9832
-0.314634 -0.668961 24.726
-0.282823 -0.667565 24.6907
-0.2503 -0.665171 24.6501
-0.215486 -0.659818 24.5936
-0.186325 -0.661535 24.5827
-0.156074 -0.66192 24.5675
-0.12381 -0.659266 24.5198
-0.093681 -0.659652 24.5047
-0.0646868 -0.661377 24.4937
-0.0346291 -0.661773 24.4786
-0.00172021 -0.65895 24.4636
0.029904 -0.658388 24.478
0.0602091 -0.658687 24.4715
0.0890804 -0.660428 24.4605
0.117925 -0.662174 24.4494
0.149026 -0.661082 24.4306
0.182353 -0.659268 24.4612
0.210942 -0.661896 24.4667
0.240771 -0.662023 24.4441
0.273227 -0.660907 24.4641
0.306093 -0.658696 24.4681
0.334823 -0.660468 24.4569
0.367011 -0.659486 24.4709
0.399221 -0.658508 24.4849
0.42935 -0.660707 24.5152
0.459413 -0.663625 24.5572
0.491775 -0.662665 24.5711
0.524159 -0.661708 24.585
0.551434 -0.667373 24.6142
0.588631 -0.66414 24.6828
0.617123 -0.670325 24.7415
0.649774 -0.669392 24.7553
0.686145 -0.67007 24.8658
0.738795 -0.673012 25.3079
0.789271 -0.682291 25.2211
0.815394 -0.682929 25.1343
0.848798 -0.684726 25.1914
0.8789 -0.684358 25.16
0.910254 -0.682762 25.1327
0.968946 -0.684623 25.0878
1.0024 -0.681722 25.0779
1.03554 -0.679428 25.0717
1.18441 -0.675338 24.9019
1.21745 -0.6745 24.9152
1.25137 -0.673334 24.9356
-0.282201 -0.635685 24.675
-0.251773 -0.636074 24.6597
-0.216947 -0.63078 24.6032
-0.187774 -0.632512 24.5922
-0.155536 -0.630199 24.5519
-0.124127 -0.62898 24.5251
-0.0950953 -0.630718 24.5142
-0.0660897 -0.632458 24.5032
-0.0341739 -0.630161 24.4632
0.000115531 -0.626153 24.4619
0.0321642 -0.625094 24.4763
0.0610515 -0.626845 24.4653
0.0899124 -0.6286 24.4543
0.118747 -0.630359 24.4433
0.148779 -0.630932 24.4377
0.180168 -0.630738 24.4535
0.211734 -0.63006 24.4607
0.240509 -0.631836 24.4496
0.272647 -0.63082 24.4637
0.304808 -0.629808 24.4778
0.333549 -0.631596 24.4666
0.365746 -0.630597 24.4806
0.397965 -0.629601 24.4947
0.430223 -0.628614 24.5086
0.460547 -0.630584 24.5383
0.489641 -0.633228 24.5519
0.522938 -0.632692 24.595
0.556345 -0.63217 24.6381
0.586777 -0.635362 24.6859
0.618394 -0.637783 24.7413
0.654284 -0.635983 24.8042
0.68589 -0.641116 24.9005
0.710628 -0.670739 25.2653
0.789142 -0.652963 25.2568
0.817187 -0.650088 25.1468
0.84945 -0.65054 25.1649
0.881842 -0.651884 25.1973
0.91285 -0.650187 25.1618
0.973116 -0.650517 25.1185
1.00522 -0.648428 25.0982
1.03489 -0.650011 25.0907
1.06457 -0.649408 25.0548
1.09073 -0.652559 25.0168
1.12697 -0.646482 25.0087
1.15897 -0.641251 24.9511
1.18773 -0.643187 24.9386
-0.341391 -0.602965 24.8003
-0.281392 -0.604003 24.6857
-0.247614 -0.599982 24.6236
-0.218403 -0.601726 24.6127
-0.186467 -0.599998 24.5791
-0.154618 -0.598267 24.5455
-0.125549 -0.600016 24.5346
-0.0941966 -0.598842 24.5078
-0.0648579 -0.600056 24.4903
-0.0321055 -0.597142 24.4623
-0.000776491 -0.596898 24.4784
0.0307928 -0.596183 24.4859
0.0596914 -0.597949 24.4749
0.0885636 -0.59972 24.4639
0.117409 -0.601494 24.4529
0.148972 -0.600798 24.4601
0.181464 -0.599285 24.4735
0.212532 -0.598253 24.4547
0.241297 -0.600042 24.4436
0.273406 -0.599185 24.4616
0.305577 -0.59798 24.4719
0.333305 -0.601385 24.4722
0.364485 -0.601692 24.4904
0.396712 -0.600679 24.5044
0.42898 -0.599674 24.5185
0.461269 -0.598673 24.5325
0.492978 -0.599069 24.5608
0.521721 -0.60366 24.6049
0.554162 -0.602677 24.6189
0.58521 -0.605463 24.6738
0.618805 -0.6049 24.717
0.654416 -0.60593 24.8271
0.698919 -0.625833 25.4361
0.84747 -0.618913 25.1302
0.882646 -0.618021 25.1785
0.916222 -0.617785 25.2074
0.945423 -0.619733 25.1946
0.972985 -0.621193 25.149
1.00675 -0.616337 25.1154
1.03748 -0.614716 25.08
1.06647 -0.616667 25.0673
1.09689 -0.617017 25.0556
-0.3429 -0.573679 24.8099
-0.284017 -0.576071 24.6897
-0.249078 -0.570897 24.6331
-0.218727 -0.571331 24.6179
-0.185155 -0.567511 24.5659
-0.156048 -0.569272 24.555
-0.124635 -0.568126 24.5282
-0.0936908 -0.567236 24.4923
-0.0636214 -0.56768 24.4773
-0.0346806 -0.569449 24.4664
-0.0021529 -0.56798 24.4879
0.0316556 -0.564356 24.4796
0.0605436 -0.566136 24.4686
0.0894052 -0.567919 24.4577
0.118536 -0.569174 24.4401
0.149235 -0.569482 24.4494
0.182168 -0.567401 24.4617
0.212688 -0.567112 24.4465
0.244079 -0.566437 24.4486
0.276862 -0.564488 24.4585
0.305814 -0.566416 24.4569
0.334566 -0.56871 24.4586
0.36572 -0.569442 24.4874
0.395463 -0.571741 24.5142
0.427739 -0.570719 24.5282
0.460037 -0.569701 24.5423
0.492374 -0.56869 24.5563
0.52262 -0.571147 24.5926
0.552957 -0.573611 24.6288
0.587084 -0.573233 24.6908
0.621379 -0.572859 24.7529
0.653813 -0.575992 24.8377
0.682611 -0.582036 24.8969
0.723402 -0.599325 25.3824
0.885493 -0.58599 25.2227
0.915957 -0.584226 25.1746
0.944642 -0.590123 25.212
0.97431 -0.592224 25.2092
-0.34106 -0.5404 24.7896
-0.281923 -0.542737 24.6828
-0.250523 -0.541882 24.6507
-0.218519 -0.540142 24.6089
-0.186591 -0.538485 24.5753
-0.157473 -0.540261 24.5644
-0.124104 -0.536518 24.5126
-0.0939905 -0.536978 24.4975
-0.0650122 -0.538759 24.4867
-0.0348705 -0.539329 24.4812
-0.00251553 -0.537911 24.4971
0.0318884 -0.5332 24.4712
0.0620239 -0.533288 24.4491
0.0908586 -0.535083 24.4382
0.119667 -0.536881 24.4273
0.151721 -0.535792 24.4416
0.182746 -0.536022 24.4601
0.211528 -0.537834 24.4491
0.241495 -0.538425 24.4418
0.275577 -0.535588 24.4681
0.305572 -0.536205 24.4624
0.335553 -0.536827 24.4566
0.366769 -0.537117 24.4772
0.396435 -0.539363 24.5017
0.426163 -0.541612 24.5261
0.458808 -0.540712 24.5521
0.491155 -0.539684 24.5661
0.523524 -0.53866 24.5802
0.551755 -0.544529 24.6388
0.588965 -0.541556 24.7194
0.620191 -0.543633 24.763
0.652631 -0.546672 24.848
0.681439 -0.552657 24.9072
-0.341202 -0.509443 24.7773
-0.304839 -0.50296 24.7012
-0.278388 -0.50793 24.6889
-0.251956 -0.512906 24.6764
-0.217179 -0.507657 24.5956
-0.188024 -0.509444 24.5847
-0.15617 -0.507841 24.5512
-0.124404 -0.506234 24.5178
-0.0953886 -0.508026 24.5069
-0.0663992 -0.509822 24.496
-0.0321835 -0.505934 24.4944
0.000185914 -0.50405 24.4908
0.030722 -0.503891 24.4736
0.0606754 -0.504389 24.4586
0.0895212 -0.506199 24.4476
0.11956 -0.506796 24.4421
0.15093 -0.506521 24.4581
0.182489 -0.505804 24.4655
0.211276 -0.507631 24.4545
0.242847 -0.506925 24.4617
0.274296 -0.506672 24.4777
0.304301 -0.507297 24.4719
0.335906 -0.506607 24.4791
0.36742 -0.50637 24.4949
0.397411 -0.50701 24.4891
0.430479 -0.506249 24.5324
0.458591 -0.510394 24.5577
0.489938 -0.510662 24.5759
0.522316 -0.509621 24.59
0.549584 -0.515125 24.6194
0.586766 -0.511474 24.6884
0.619005 -0.51439 24.7731
0.65036 -0.517023 24.8285
0.685168 -0.516582 24.8966
-0.34156 -0.478919 24.7924
-0.306333 -0.473948 24.7352
-0.252017 -0.481959 24.6622
-0.218619 -0.478586 24.605
-0.187076 -0.477528 24.5781
-0.154863 -0.475449 24.5379
-0.12581 -0.477252 24.5271
-0.0967829 -0.47906 24.5162
-0.0655426 -0.478301 24.5017
-0.0324519 -0.475511 24.4919
0.00153753 -0.471835 24.4897
0.0304471 -0.473652 24.4789
0.0593304 -0.475474 24.468
0.0881873 -0.4773 24.457
0.118237 -0.477905 24.4515
0.149615 -0.477611 24.4676
0.181182 -0.476885 24.475
0.20998 -0.478728 24.4639
0.242112 -0.47762 24.4783
0.274266 -0.476517 24.4926
0.303033 -0.478373 24.4815
0.335224 -0.477283 24.4957
0.367439 -0.476197 24.51
0.396171 -0.478067 24.4988
0.429026 -0.476602 24.52
0.459688 -0.477232 24.5312
0.488724 -0.481625 24.5857
0.521111 -0.480566 24.5998
0.554486 -0.480347 24.6548
0.585576 -0.482308 24.6984
0.621581 -0.482162 24.8091
0.652287 -0.484553 24.8458
-0.343051 -0.449616 24.8019
-0.307812 -0.444704 24.7447
-0.251678 -0.450543 24.6412
-0.220055 -0.4495 24.6143
-0.186487 -0.445927 24.5623
-0.156275 -0.446437 24.5473
-0.127211 -0.448256 24.5364
-0.0940664 -0.445572 24.5311
-0.0627424 -0.444769 24.5181
-0.028773 -0.441045 24.51
0.000173907 -0.442874 24.4991
0.0290946 -0.444708 24.4882
0.057989 -0.446545 24.4773
0.086857 -0.448386 24.4664
0.119557 -0.446405 24.4753
0.150906 -0.44604 24.4874
0.18201 -0.445117 24.4687
0.210798 -0.446973 24.4577
0.242895 -0.446001 24.476
0.27403 -0.446262 24.498
0.301768 -0.449435 24.491
0.333968 -0.448327 24.5053
0.366191 -0.447222 24.5196
0.397859 -0.446526 24.5268
0.430739 -0.445034 24.5481
0.459477 -0.44693 24.5368
0.487147 -0.452476 24.5835
0.52356 -0.448508 24.6352
0.556022 -0.447439 24.6494
0.58439 -0.453127 24.7083
0.616213 -0.455757 24.7811
0.652007 -0.455403 24.8803
-0.312129 -0.418517 24.728
-0.250702 -0.41857 24.6345
-0.221487 -0.4204 24.6236
-0.186785 -0.415579 24.5674
-0.157684 -0.41741 24.5565
-0.127436 -0.417999 24.5511
-0.0937711 -0.414787 24.5482
-0.0591283 -0.410214 24.5302
-0.0301441 -0.412055 24.5193
-0.00118605 -0.4139 24.5085
0.0277457 -0.415749 24.4976
0.0566512 -0.417601 24.4866
0.0855302 -0.419458 24.4757
0.120244 -0.415038 24.4775
0.153555 -0.411806 24.4643
0.18235 -0.41367 24.4533
0.212326 -0.414293 24.4462
0.243533 -0.41422 24.4627
0.274307 -0.414782 24.4827
0.302809 -0.417162 24.4782
0.332422 -0.419278 24.5029
0.364946 -0.418233 24.5291
0.397218 -0.417119 24.5434
0.429512 -0.416009 24.5577
0.461233 -0.415314 24.5649
0.491855 -0.417643 24.6151
0.522359 -0.419388 24.645
0.554829 -0.418301 24.6592
0.583855 -0.42352 24.7253
0.618361 -0.423358 24.805
0.653073 -0.424931 24.9204
-0.313595 -0.389279 24.7374
-0.24713 -0.383854 24.6464
-0.220063 -0.388089 24.6345
-0.188201 -0.386523 24.5766
-0.157921 -0.387116 24.5712
-0.124171 -0.383936 24.5768
-0.0928447 -0.383224 24.5629
-0.0604343 -0.381229 24.5475
-0.0315114 -0.38305 24.5286
-0.00254232 -0.38491 24.5178
0.0264005 -0.386775 24.5069
0.055317 -0.388643 24.4959
0.0899701 -0.384186 24.4916
0.123416 -0.38099 24.4846
0.153309 -0.381574 24.4695
0.182108 -0.383453 24.4586
0.213671 -0.382706 24.466
0.246345 -0.381127 24.4875
0.275113 -0.383019 24.4765
0.306712 -0.382289 24.4838
0.336898 -0.383959 24.5156
0.364729 -0.387934 24.5345
0.395985 -0.388096 24.553
0.428288 -0.386968 24.5673
0.460631 -0.385848 24.5816
0.491991 -0.386031 24.6
0.52116 -0.390252 24.6548
0.554436 -0.389281 24.6932
0.589469 -0.388589 24.7799
0.621814 -0.391114 24.8653
0.649665 -0.396601 24.9005
-0.312178 -0.356776 24.7349
-0.250756 -0.357019 24.6302
-0.218762 -0.355595 24.5966
-0.186855 -0.354188 24.5632
-0.157763 -0.356046 24.5524
-0.125138 -0.354047 24.5542
-0.0920932 -0.351548 24.5541
-0.0629814 -0.35345 24.553
-0.032875 -0.354031 24.5379
-0.0038949 -0.355907 24.527
0.0250589 -0.357786 24.5161
0.0593246 -0.354 24.5225
0.0932324 -0.350132 24.5048
0.123168 -0.350732 24.4897
0.152005 -0.352622 24.4788
0.180816 -0.354516 24.4679
0.213474 -0.352905 24.4895
0.245069 -0.352154 24.4969
0.273848 -0.354062 24.4859
0.306024 -0.352896 24.5003
0.338224 -0.351734 24.5148
0.365845 -0.355293 24.5147
0.394755 -0.359059 24.5625
0.427066 -0.357912 24.5769
0.459418 -0.356774 24.5912
0.491793 -0.35564 24.6055
0.519965 -0.361101 24.6645
0.55293 -0.360041 24.6933
0.588286 -0.359291 24.7898
0.620638 -0.361721 24.8754
0.650279 -0.36741 24.9595
-0.310338 -0.323785 24.7173
-0.249367 -0.324626 24.6166
-0.217391 -0.323256 24.5831
-0.185504 -0.321882 24.5497
-0.156432 -0.323751 24.5389
-0.127385 -0.325624 24.5282
-0.0953308 -0.324365 24.5431
-0.0607117 -0.319856 24.5234
-0.0316191 -0.321765 24.5246
-0.00265841 -0.323652 24.5138
0.0273671 -0.325212 24.5582
0.0586866 -0.324362 24.5418
0.0931032 -0.319867 24.518
0.121858 -0.32175 24.4991
0.150705 -0.323656 24.4881
0.182831 -0.322449 24.5027
0.214979 -0.321246 24.5173
0.243796 -0.323166 24.5063
0.273838 -0.323832 24.5007
0.305339 -0.32347 24.5168
0.336978 -0.322726 24.5242
0.366351 -0.324731 24.537
0.395762 -0.328148 24.5923
0.427134 -0.32758 24.5919
0.460497 -0.325829 24.6211
0.491326 -0.326607 24.6393
0.522416 -0.328808 24.7001
0.554379 -0.32831 24.7141
0.587107 -0.329978 24.7997
0.619465 -0.332313 24.8854
-0.31503 -0.298192 24.6931
-0.282867 -0.296846 24.6594
-0.247972 -0.292283 24.603
-0.216016 -0.290946 24.5695
-0.184147 -0.289625 24.5362
-0.155095 -0.291505 24.5255
-0.126068 -0.293389 24.5147
-0.0967117 -0.294815 24.4973
-0.0628592 -0.291242 24.4893
-0.0303587 -0.289527 24.5113
-0.00141746 -0.291426 24.5005
0.0280972 -0.293388 24.5378
0.0599044 -0.292599 24.5593
0.0904138 -0.292444 24.5304
0.12055 -0.292754 24.5083
0.150636 -0.293408 24.5028
0.182077 -0.293003 24.5191
0.213699 -0.292229 24.5267
0.242526 -0.294164 24.5157
0.274722 -0.292956 24.5302
0.30694 -0.291753 24.5448
0.337003 -0.292437 24.5391
0.366964 -0.295816 24.6186
0.395812 -0.297784 24.6073
0.428184 -0.296605 24.6217
0.46058 -0.295429 24.6362
0.491595 -0.297549 24.6972
0.524884 -0.296433 24.7357
0.560663 -0.295461 24.8474
0.590488 -0.297529 24.8601
-0.313575 -0.265775 24.6671
-0.278595 -0.26127 24.6229
-0.246583 -0.259975 24.5812
-0.217594 -0.261898 24.514
-0.185295 -0.260138 24.504
-0.153754 -0.259288 24.5119
-0.124747 -0.261184 24.5013
-0.0957661 -0.263083 24.4906
-0.0657137 -0.263714 24.4756
-0.0325914 -0.261103 24.4829
-0.000501619 -0.2597 24.4938
0.0273698 -0.263064 24.5043
0.058748 -0.262616 24.5208
0.0892778 -0.263088 24.5326
0.122495 -0.260556 24.5432
0.154664 -0.259306 24.558
0.183556 -0.261249 24.547
0.212421 -0.263196 24.536
0.242506 -0.263873 24.5304
0.275604 -0.262012 24.5598
0.30569 -0.262699 24.5542
0.334497 -0.264664 24.543
0.365729 -0.266683 24.6281
0.395869 -0.26739 24.6223
0.427573 -0.267016 24.6384
0.462968 -0.263091 24.6716
0.491129 -0.268347 24.731
0.523692 -0.267167 24.7455
0.556356 -0.268625 24.8315
-0.341424 -0.231491 24.6681
-0.309263 -0.230216 24.6427
-0.277171 -0.228952 24.6091
-0.248122 -0.231027 24.5013
-0.219077 -0.232922 24.4908
-0.187552 -0.232057 24.4987
-0.15341 -0.228202 24.4871
-0.12342 -0.229027 24.4878
-0.0941025 -0.230493 24.4704
-0.0639811 -0.230966 24.4481
-0.0350953 -0.232881 24.4375
-0.00190393 -0.230299 24.4602
0.0277228 -0.231734 24.4789
0.0565309 -0.234089 24.4934
0.09226 -0.229547 24.5634
0.124439 -0.228273 24.5783
0.153368 -0.230228 24.5673
0.182271 -0.232187 24.5563
0.211147 -0.234149 24.5453
0.243913 -0.232436 24.5671
0.275599 -0.231653 24.5746
0.307877 -0.230416 24.5893
0.335404 -0.235546 24.6408
0.364498 -0.237536 24.6375
0.39689 -0.236315 24.6521
0.432267 -0.232338 24.6854
0.463912 -0.232269 24.7062
0.493563 -0.235855 24.7667
0.530224 -0.231419 24.8195
0.559092 -0.236644 24.8917
-0.341734 -0.200987 24.6811
-0.307804 -0.197921 24.6207
-0.280028 -0.201635 24.5443
-0.249526 -0.20201 24.5103
-0.217688 -0.200799 24.4771
-0.188307 -0.202273 24.4599
-0.156994 -0.201494 24.4335
-0.125082 -0.200155 24.4485
-0.0931468 -0.198821 24.4636
-0.0642313 -0.200746 24.453
-0.0353414 -0.202676 24.4423
-0.00336544 -0.201361 24.4572
0.0286347 -0.200049 24.4722
0.0598067 -0.199906 24.5015
0.0900621 -0.20061 24.5123
0.119891 -0.202424 24.5617
0.152076 -0.201136 24.5766
0.182225 -0.20182 24.571
0.213758 -0.201363 24.5875
0.245461 -0.200566 24.5951
0.2756 -0.201265 24.5895
0.303753 -0.204498 24.597
0.334361 -0.206362 24.6582
0.366764 -0.205117 24.6729
0.399191 -0.203875 24.6875
0.431659 -0.202642 24.7021
0.49299 -0.206069 24.7836
0.570069 -0.206614 25.2743
0.589681 -0.220241 25.2677
-0.339652 -0.168064 24.6528
-0.280017 -0.171059 24.5298
-0.247714 -0.169456 24.4899
-0.216294 -0.168705 24.4634
-0.187315 -0.170626 24.4529
-0.157248 -0.171296 24.4382
-0.126741 -0.171388 24.4094
-0.0948496 -0.170039 24.4244
-0.0630355 -0.168736 24.4275
-0.0340632 -0.17063 24.4289
-0.00508681 -0.172529 24.4302
0.0296481 -0.168037 24.4401
0.0561883 -0.173021 24.4704
0.0882366 -0.171705 24.4853
0.118404 -0.173378 24.5588
0.1546 -0.168256 24.6188
0.186331 -0.16744 24.6265
0.215279 -0.169437 24.6155
0.247024 -0.168632 24.6231
0.273617 -0.173362 24.6174
0.303992 -0.175172 24.6708
0.336013 -0.174357 24.6865
0.367755 -0.173914 24.7028
0.40151 -0.171354 24.7231
0.434013 -0.170101 24.7377
0.46218 -0.175154 24.7976
0.536202 -0.174868 25.1963
0.566777 -0.177448 25.2362
0.598348 -0.178847 25.2722
-0.344366 -0.143045 24.601
-0.313426 -0.143155 24.5719
-0.278171 -0.13851 24.5092
-0.246693 -0.137787 24.4828
-0.214894 -0.13666 24.4497
-0.185935 -0.138593 24.4393
-0.155391 -0.138713 24.4105
-0.125401 -0.139397 24.3958
-0.0965484 -0.141338 24.3853
-0.0646767 -0.139973 24.4004
-0.0327806 -0.138613 24.4154
-0.00395568 -0.140569 24.4048
0.027982 -0.139222 24.4197
0.0574142 -0.140957 24.4571
0.0865117 -0.142841 24.465
0.120159 -0.141022 24.5818
0.15565 -0.136374 24.6226
0.185051 -0.138266 24.6358
0.214009 -0.140278 24.6247
0.306373 -0.142593 24.7144
0.338822 -0.141303 24.7292
0.367803 -0.14335 24.7178
0.50279 -0.143295 25.1267
0.530502 -0.148534 25.1543
0.568165 -0.143805 25.2211
0.600109 -0.145658 25.2844
-0.341127 -0.109038 24.5686
-0.309087 -0.107937 24.5353
-0.277134 -0.106885 24.494
-0.246375 -0.107159 24.4352
-0.214637 -0.105954 24.4305
-0.184551 -0.106588 24.4256
-0.155637 -0.108535 24.4151
-0.124419 -0.107866 24.3888
-0.0955779 -0.109818 24.3784
-0.0663137 -0.111285 24.3732
-0.0316734 -0.106762 24.3833
-0.00268704 -0.108612 24.3913
0.0265298 -0.110357 24.4167
0.0586443 -0.108922 24.4437
0.0908304 -0.107496 24.4706
0.117734 -0.112329 24.5183
0.150675 -0.110706 24.5816
0.218237 -0.105925 24.6973
0.244724 -0.111324 24.716
0.272696 -0.114634 24.7089
0.308755 -0.109907 24.7581
0.369046 -0.113542 24.825
0.471722 -0.111508 25.1319
0.501332 -0.113594 25.1283
0.535166 -0.112195 25.1681
0.566973 -0.113953 25.2313
0.60187 -0.112437 25.2965
0.632095 -0.11565 25.3389
-0.341394 -0.0786763 24.5731
-0.28096 -0.0811095 24.4369
-0.249578 -0.0804947 24.4037
-0.219508 -0.0811293 24.3988
-0.184669 -0.0764184 24.387
-0.154325 -0.0766826 24.3894
-0.123812 -0.0767828 24.3727
-0.0938927 -0.0775045 24.3582
-0.0651053 -0.07947 24.3477
-0.0332719 -0.0780747 24.3628
-0.001414 -0.0766833 24.3779
0.0264992 -0.0797649 24.3906
0.0583785 -0.0785775 24.4234
0.0893672 -0.0785791 24.4676
0.119501 -0.0799807 24.5411
0.406275 -0.0810065 25.0546
0.43634 -0.0833288 25.0853
0.467106 -0.085143 25.1233
0.490651 -0.0938935 25.1071
0.53319 -0.0825538 25.1531
0.564968 -0.0842446 25.2162
0.598994 -0.0828042 25.2562
0.631049 -0.0845204 25.3196
-0.34004 -0.0469452 24.5395
-0.279912 -0.0496058 24.4228
-0.248542 -0.0489808 24.3966
-0.219241 -0.050547 24.3796
-0.187617 -0.0495219 24.3468
-0.156281 -0.0485992 24.355
-0.124045 -0.0466482 24.3773
-0.0952223 -0.0486245 24.3669
-0.0664246 -0.050605 24.3564
-0.0350553 -0.0497049 24.3645
-0.0027197 -0.0477793 24.3866
0.0260508 -0.0497752 24.3761
0.0579574 -0.0483788 24.3911
0.0876559 -0.0498249 24.4471
0.120133 -0.0481878 24.4915
0.3751 -0.0497187 25.0688
0.408014 -0.0483837 25.0838
0.440355 -0.0475809 25.0914
0.467 -0.0538468 25.1215
0.498926 -0.0540786 25.1481
0.531998 -0.0527692 25.163
0.568663 -0.0484017 25.2118
0.597818 -0.0529015 25.2663
0.632831 -0.0512418 25.3317
-0.34233 -0.019176 24.5233
-0.310288 -0.018679 24.4417
-0.278455 -0.0176954 24.4089
-0.246708 -0.0167068 24.3761
-0.217825 -0.018678 24.3658
-0.188965 -0.0206535 24.3554
-0.157786 -0.0200675 24.3294
-0.125661 -0.0182306 24.338
-0.094238 -0.0171676 24.3598
-0.065452 -0.0191595 24.3494
-0.0362373 -0.0206478 24.3443
-0.00375732 -0.0184823 24.3539
0.0273139 -0.0179149 24.3626
0.0566727 -0.0194576 24.3999
0.0909589 -0.01567 24.455
0.118858 -0.0191511 24.5005
0.252213 -0.0151901 25.0735
0.280895 -0.0184542 25.0811
0.31158 -0.0192356 25.0752
0.341222 -0.0217327 25.098
0.376115 -0.0178706 25.0996
0.406787 -0.0186682 25.0936
0.439752 -0.0173228 25.1086
0.470746 -0.0186422 25.1399
0.500282 -0.0211146 25.1473
0.531004 -0.0225607 25.166
0.567669 -0.0181301 25.2149
0.598744 -0.019898 25.2531
0.632383 -0.0195131 25.3126
0.664116 -0.0201498 25.3314
-0.346502 0.00639451 24.5059
-0.310533 0.0115316 24.4461
-0.276992 0.0141851 24.3949
-0.248074 0.0122036 24.3846
-0.21679 0.0127622 24.3585
-0.187563 0.0111549 24.3416
-0.156033 0.0120974 24.309
-0.126112 0.011438 24.3042
-0.0954553 0.0117063 24.3259
-0.0648737 0.011807 24.3333
-0.0350473 0.0110281 24.3188
-0.00324537 0.0124742 24.3339
0.0285813 0.0139165 24.349
0.0579227 0.012413 24.3864
0.0873367 0.0109081 24.4238
0.116224 0.00895175 24.4211
0.218577 0.0133797 25.0929
0.25145 0.0147841 25.1082
0.280903 0.0126303 25.0965
0.311609 0.0118394 25.0905
0.343826 0.0124004 25.1074
0.376173 0.0132358 25.1151
0.405563 0.0110622 25.1033
0.438537 0.0124272 25.1183
0.471536 0.0137882 25.1334
0.504951 0.0152673 25.161
0.533329 0.0104003 25.2099
0.566489 0.0117411 25.2248
0.599674 0.0130779 25.2398
0.627877 0.00803304 25.276
0.662057 0.00960592 25.3163
-0.343983 0.0391445 24.4681
-0.309771 0.042578 24.4296
-0.278364 0.0431226 24.4035
-0.246626 0.0440233 24.3707
-0.214974 0.0449293 24.338
-0.186156 0.0429337 24.3278
-0.157363 0.0409337 24.3175
-0.128594 0.0389293 24.3072
-0.0968531 0.0404138 24.3225
-0.0650873 0.0418944 24.3378
-0.0363444 0.0398743 24.3274
-0.00453582 0.0413401 24.3425
0.0272976 0.042802 24.3577
0.059174 0.0442548 24.3728
0.0885707 0.0427892 24.4102
0.118061 0.0413167 24.4476
0.217849 0.0436709 25.11
0.250178 0.0445398 25.1178
0.280918 0.0437452 25.1119
0.313143 0.0443331 25.1288
0.34551 0.0451839 25.1366
0.37494 0.0429977 25.1248
0.407321 0.0438363 25.1325
0.439629 0.0443984 25.1493
0.470332 0.0435727 25.1432
0.503382 0.0449441 25.1582
0.534299 0.0432894 25.1965
0.565313 0.0416275 25.2348
0.598506 0.0429839 25.2498
0.629662 0.0412943 25.2881
0.661815 0.0398684 25.3517
-0.344601 0.0689577 24.4722
-0.308695 0.074079 24.4222
-0.276891 0.0749433 24.3895
-0.245174 0.0758131 24.3568
-0.216321 0.0738073 24.3465
-0.187493 0.071797 24.3363
-0.158689 0.0697822 24.326
-0.12991 0.067763 24.3157
-0.0986141 0.0687179 24.3239
-0.066453 0.0706571 24.3383
-0.03537 0.0712453 24.3203
-0.00437462 0.0718141 24.3282
0.0260176 0.0717002 24.3663
0.0579008 0.0731727 24.3815
0.0898089 0.0746414 24.3967
0.116801 0.0703157 24.4564
0.25234 0.0779337 25.1545
0.2853 0.0793706 25.1699
0.314799 0.0771761 25.1581
0.34427 0.0749773 25.1463
0.373712 0.0727742 25.1344
0.406706 0.0741844 25.1496
0.439725 0.0755907 25.1649
0.469132 0.073372 25.1529
0.502191 0.0747632 25.168
0.535274 0.0761504 25.1831
0.563327 0.0712187 25.2194
0.597342 0.0729051 25.2597
0.631024 0.0744261 25.2874
