1.25428 -1.70779 24.8993
1.28679 -1.70773 24.9084
1.33618 -1.749 25.3819
1.37153 -1.74142 25.3529
1.40141 -1.74267 25.3444
1.43488 -1.73787 25.3212
1.46777 -1.73774 25.3281
1.49917 -1.73664 25.3154
1.52815 -1.73806 25.3016
1.56092 -1.73843 25.311
1.59316 -1.73995 25.3241
1.6252 -1.73943 25.3211
1.65829 -1.74081 25.3395
1.69543 -1.74037 25.3764
1.72762 -1.74692 25.4223
1.7615 -1.74664 25.434
1.79143 -1.74804 25.427
1.83054 -1.74273 25.4441
0.101548 -1.65548 24.7519
0.127605 -1.65899 24.7229
0.155223 -1.65958 24.6788
0.189045 -1.65368 24.6415
0.218098 -1.65497 24.6297
0.254035 -1.64791 24.6091
0.284162 -1.64702 24.5861
0.313093 -1.64831 24.5742
0.341995 -1.64961 24.5624
0.374845 -1.64566 24.5406
0.404767 -1.64478 24.5177
0.434866 -1.64434 24.5026
0.466976 -1.64344 24.5075
0.497525 -1.64385 24.508
0.526765 -1.64525 24.5032
0.556769 -1.64559 24.4964
0.586757 -1.64594 24.4897
0.617821 -1.64645 24.4971
0.648894 -1.64697 24.5045
0.680186 -1.64636 24.5028
0.713673 -1.64664 24.534
0.744054 -1.64688 24.5303
0.773666 -1.64951 24.5414
0.804681 -1.65387 24.5836
0.835024 -1.65468 24.5843
0.866961 -1.65516 24.5983
0.903422 -1.65369 24.6402
0.932046 -1.66138 24.685
0.965543 -1.66091 24.7042
1.00245 -1.66583 24.8038
1.03119 -1.6672 24.7911
1.06504 -1.67388 24.8729
1.09697 -1.68148 24.9424
1.13222 -1.68022 24.9673
1.16106 -1.6816 24.9542
1.19243 -1.67786 24.9226
1.22599 -1.67375 24.9087
1.2547 -1.67515 24.8956
1.2878 -1.67478 24.9077
1.33629 -1.71093 25.3383
1.371 -1.70805 25.3401
1.40183 -1.70641 25.3178
1.4314 -1.70569 25.2922
1.46297 -1.70595 25.2913
1.49732 -1.70311 25.2907
1.52802 -1.70263 25.2773
1.55835 -1.70516 25.2828
1.59405 -1.70503 25.3124
1.62473 -1.70884 25.3293
1.65744 -1.71057 25.3473
1.69606 -1.70927 25.39
1.73176 -1.71211 25.4379
1.76667 -1.71077 25.4502
1.7966 -1.71292 25.4482
1.82552 -1.71962 25.4688
-0.0898757 -1.65737 25.2018
0.0662505 -1.63571 24.8526
0.100592 -1.62823 24.795
0.129295 -1.62783 24.7511
0.162297 -1.62301 24.7132
0.192478 -1.62171 24.6821
0.218353 -1.62526 24.6532
0.25432 -1.61821 24.6325
0.284663 -1.61777 24.6174
0.313428 -1.61866 24.5977
0.342355 -1.61997 24.5858
0.373473 -1.61695 24.5516
0.403408 -1.61611 24.5287
0.435016 -1.616 24.5362
0.467811 -1.61449 24.5426
0.498271 -1.61471 24.5391
0.528066 -1.61464 24.5246
0.557315 -1.61604 24.5198
0.590268 -1.61564 24.5396
0.620286 -1.61601 24.5328
0.648957 -1.61735 24.5207
0.681714 -1.61731 24.5411
0.712909 -1.6186 24.5569
0.743816 -1.61947 24.5648
0.774812 -1.62378 24.6072
0.805185 -1.62459 24.6079
0.837138 -1.62505 24.622
0.873035 -1.62289 24.6523
0.905709 -1.62246 24.6647
0.934949 -1.63075 24.7214
0.967727 -1.63033 24.7337
0.9999 -1.63785 24.8102
1.03486 -1.63711 24.8396
1.06392 -1.64485 24.8847
1.09587 -1.65238 24.9542
1.13326 -1.65019 24.9919
1.16458 -1.64762 24.9684
1.19528 -1.64478 24.9378
1.22493 -1.64469 24.9206
1.25512 -1.64512 24.9129
1.33776 -1.67557 25.327
1.37146 -1.67184 25.3134
1.40129 -1.67312 25.3051
1.43084 -1.67242 25.2795
1.45983 -1.67386 25.2657
1.49521 -1.67193 25.2807
1.52793 -1.67166 25.2856
1.56085 -1.67211 25.2972
1.59329 -1.67309 25.3084
1.62396 -1.67688 25.3254
1.66286 -1.67845 25.3917
1.69755 -1.67823 25.4111
-0.0943829 -1.63109 25.212
0.0937273 -1.60671 24.8276
0.152202 -1.6034 24.7204
0.191353 -1.59366 24.709
0.222511 -1.59185 24.6854
0.252328 -1.5897 24.6394
0.283253 -1.58897 24.6284
0.31377 -1.58896 24.6211
0.342721 -1.59029 24.6092
0.372015 -1.5909 24.5936
0.405181 -1.58895 24.5991
0.436931 -1.58721 24.5884
0.466842 -1.5864 24.5654
0.49564 -1.58774 24.5534
0.531347 -1.58479 24.5792
0.561831 -1.58502 24.5757
0.590582 -1.58637 24.5637
0.622193 -1.58609 24.5683
0.653819 -1.58653 24.5805
0.68201 -1.59067 24.5912
0.71167 -1.59328 24.6025
0.744889 -1.59364 24.6307
0.775291 -1.59445 24.6315
0.80726 -1.59489 24.6457
0.842436 -1.59278 24.6692
0.908713 -1.59823 24.7625
0.936458 -1.60102 24.7525
0.967774 -1.6027 24.7689
1.00158 -1.60691 24.8324
1.03586 -1.60663 24.8593
1.0628 -1.6158 24.8964
1.09688 -1.62235 24.9788
1.13431 -1.62011 25.0166
1.16553 -1.61494 24.9698
1.19511 -1.61417 24.9456
1.22388 -1.6156 24.9325
1.25702 -1.61521 24.9447
1.29556 -1.64445 25.2431
1.33381 -1.6444 25.3002
1.36805 -1.63952 25.2826
1.40141 -1.63727 25.2779
1.4321 -1.63781 25.2717
1.46108 -1.63927 25.258
1.49565 -1.63888 25.2779
1.52784 -1.64067 25.2939
1.55975 -1.64192 25.3029
1.59282 -1.64249 25.3166
1.62693 -1.64564 25.3568
1.66433 -1.64395 25.3882
-0.0967336 -1.60178 25.2115
0.190727 -1.56677 24.7598
0.248508 -1.56823 24.7121
0.285188 -1.55934 24.6766
0.317592 -1.55733 24.6695
0.346592 -1.55868 24.6576
0.375563 -1.56003 24.6457
0.404504 -1.56138 24.6337
0.434857 -1.56119 24.6224
0.468788 -1.55913 24.6359
0.497662 -1.5605 24.6239
0.526508 -1.56186 24.6119
0.555324 -1.56323 24.5998
0.587834 -1.56273 24.6126
0.620362 -1.56223 24.6253
0.649135 -1.56361 24.6132
0.68246 -1.56275 24.6308
0.713073 -1.56449 24.6437
0.744946 -1.56377 24.6456
0.776625 -1.56478 24.6624
0.812513 -1.56254 24.6929
0.844492 -1.56352 24.7117
0.870719 -1.5716 24.7365
0.903882 -1.57156 24.7569
0.936691 -1.57111 24.7693
0.967824 -1.57499 24.8041
1.00241 -1.57712 24.8569
1.03615 -1.5766 24.8763
1.06126 -1.58631 24.9002
1.09923 -1.59142 25.009
1.13322 -1.59091 25.0285
1.16445 -1.58579 24.9817
1.19405 -1.58505 24.9574
1.22283 -1.58649 24.9444
1.25598 -1.58609 24.9566
1.29972 -1.60944 25.2578
1.3349 -1.60763 25.2734
1.36466 -1.6075 25.2535
1.39726 -1.60649 25.2521
1.43156 -1.60461 25.259
1.46052 -1.60609 25.2453
1.49331 -1.60595 25.2523
1.52732 -1.60827 25.2879
1.55761 -1.61076 25.293
1.59347 -1.61199 25.3347
1.6337 -1.60982 25.3865
-0.0964272 -1.56871 25.1982
-0.0587389 -1.5648 25.243
-0.034873 -1.57167 25.2112
0.321437 -1.52559 24.718
0.345834 -1.531 24.6924
0.374193 -1.53118 24.6567
0.408749 -1.5277 24.6612
0.440464 -1.52688 24.6598
0.470338 -1.52722 24.6483
0.501123 -1.52829 24.657
0.529142 -1.53156 24.6557
0.558547 -1.53374 24.6593
0.589801 -1.53422 24.6669
0.619965 -1.53462 24.66
0.651993 -1.53473 24.6725
0.684882 -1.53322 24.6776
0.716887 -1.53193 24.6746
0.747941 -1.53389 24.6942
0.779658 -1.53444 24.7064
0.808422 -1.53585 24.6941
0.871289 -1.54209 24.761
0.905361 -1.54172 24.7881
0.938864 -1.54036 24.7989
0.967871 -1.54721 24.8393
1.00204 -1.54798 24.8755
1.03503 -1.54753 24.888
1.0968 -1.56307 25.0151
1.13168 -1.56127 25.0323
1.16338 -1.55662 24.9935
1.19299 -1.5559 24.9693
1.22714 -1.55444 24.9821
1.26872 -1.57417 25.2397
1.30015 -1.5766 25.2559
1.33441 -1.57445 25.2605
1.3643 -1.57442 25.2427
1.39706 -1.5734 25.2428
1.42993 -1.57464 25.2616
1.46042 -1.57513 25.2534
1.49311 -1.57484 25.2584
1.52566 -1.57647 25.2766
1.56124 -1.57925 25.3287
1.60404 -1.57526 25.3894
1.63173 -1.58063 25.3934
-0.0907981 -1.53248 25.2315
-0.0591094 -1.53417 25.2583
-0.0247564 -1.52951 25.2281
0.53124 -1.50038 24.6839
0.560129 -1.50178 24.6718
0.593298 -1.50203 24.7004
0.624896 -1.5029 24.7159
0.655101 -1.50331 24.709
0.687096 -1.50291 24.7148
0.720473 -1.50229 24.7345
0.749303 -1.50372 24.7222
0.782028 -1.50322 24.7348
0.813819 -1.5042 24.7517
0.840826 -1.51056 24.7685
0.87274 -1.51221 24.7923
0.90558 -1.51173 24.8049
0.938458 -1.51126 24.8174
0.966725 -1.51818 24.8508
1.00168 -1.5188 24.8941
1.03391 -1.51844 24.8996
1.0957 -1.53385 25.0269
1.13105 -1.53244 25.0522
1.16391 -1.52598 25.0085
1.19627 -1.52482 25.0065
1.22217 -1.52942 24.9919
1.26472 -1.54599 25.2346
1.30235 -1.54089 25.2466
1.33495 -1.53988 25.2454
1.3647 -1.5406 25.2322
1.39441 -1.54131 25.2191
1.42878 -1.54168 25.2447
1.46082 -1.5421 25.2498
1.49308 -1.54527 25.2779
1.52825 -1.54387 25.2956
1.56787 -1.54125 25.3412
1.59812 -1.54796 25.3773
-0.0612863 -1.50181 25.21
-0.0292415 -1.50317 25.2382
0.00353344 -1.50138 25.2271
0.567923 -1.47124 24.7806
0.596325 -1.47191 24.7525
0.625836 -1.4741 24.7561
0.658324 -1.47231 24.7522
0.690362 -1.47191 24.758
0.719558 -1.47372 24.7536
0.751397 -1.47345 24.7582
0.785766 -1.47346 24.795
0.846339 -1.47942 24.8335
0.875573 -1.48126 24.8289
0.907726 -1.48088 24.8345
0.942556 -1.48143 24.8779
0.971319 -1.48788 24.9117
1.00392 -1.48785 24.9241
1.03784 -1.494 25.007
1.09036 -1.50657 25.0129
1.13923 -1.49418 25.0766
1.17112 -1.49254 25.065
1.2415 -1.50581 25.2483
1.26348 -1.51378 25.2215
1.29831 -1.51025 25.2206
1.33236 -1.50782 25.2216
1.36509 -1.50679 25.2218
1.39556 -1.5073 25.2137
1.42839 -1.50849 25.2326
1.46047 -1.50965 25.244
1.49159 -1.51463 25.2766
1.53049 -1.51342 25.3284
1.5642 -1.51302 25.3406
-0.0610729 -1.47052 25.2246
-0.0302962 -1.47351 25.2568
0.001343 -1.47343 25.2523
0.275367 -1.46059 24.8879
0.317013 -1.45097 24.9135
0.345449 -1.4509 24.8692
0.403171 -1.45263 24.8206
0.438772 -1.44893 24.8353
0.468455 -1.44823 24.8044
0.498037 -1.44969 24.7995
0.530765 -1.44913 24.8126
0.563727 -1.44534 24.7904
0.595609 -1.44367 24.7796
0.625161 -1.44586 24.7832
0.661112 -1.44258 24.8054
0.690054 -1.44403 24.7931
0.718966 -1.44549 24.7807
0.755654 -1.44297 24.8187
0.784552 -1.44443 24.8063
0.808318 -1.45287 24.8069
0.842247 -1.4526 24.8346
0.874395 -1.45221 24.8403
0.907684 -1.45208 24.8609
0.935571 -1.45856 24.8865
0.970176 -1.45875 24.9233
1.00557 -1.45738 24.9526
1.03838 -1.46049 24.9962
1.06937 -1.45811 24.9688
1.10149 -1.46809 25.0664
1.20847 -1.47246 25.2251
1.23308 -1.48146 25.2328
1.26717 -1.47818 25.2268
1.29708 -1.47822 25.2091
1.33145 -1.47766 25.2287
1.3641 -1.47733 25.2339
1.39458 -1.47785 25.2259
1.4275 -1.47832 25.2398
1.45931 -1.47951 25.2491
1.49536 -1.48183 25.3049
1.53149 -1.48257 25.3477
-0.059844 -1.43726 25.2249
-0.0286901 -1.44011 25.2626
0.00349789 -1.44152 25.2937
0.0335899 -1.44358 25.2955
0.0664605 -1.44031 25.2608
0.212213 -1.4086 25.0923
0.263023 -1.44516 24.9167
0.373727 -1.42395 24.8841
0.408 -1.41797 24.849
0.443706 -1.41433 24.8652
0.473094 -1.41615 24.8609
0.502213 -1.4176 24.8487
0.530503 -1.41796 24.8124
0.560086 -1.42015 24.8161
0.683008 -1.42123 24.8014
0.719669 -1.41866 24.8397
0.777532 -1.42162 24.8148
0.811847 -1.42173 24.8516
0.844321 -1.42165 24.8642
0.876833 -1.42156 24.8768
0.911338 -1.4217 24.9136
0.943386 -1.42615 24.9648
0.972736 -1.42802 24.96
1.00505 -1.42764 24.9656
1.03893 -1.42701 24.9853
1.06784 -1.42853 24.9724
1.106 -1.43788 25.1281
1.20362 -1.44626 25.2284
1.23746 -1.44529 25.24
1.26791 -1.44572 25.2304
1.29752 -1.44525 25.2052
1.33251 -1.44395 25.2248
1.36397 -1.44636 25.2418
1.39407 -1.44731 25.2336
1.42873 -1.44799 25.2652
1.46469 -1.44709 25.2953
1.50066 -1.44728 25.3333
1.52565 -1.45742 25.3515
-0.0286139 -1.40598 25.2251
0.00397133 -1.40898 25.2933
0.0338658 -1.41042 25.2808
0.0665712 -1.4096 25.2833
0.0960905 -1.41294 25.2952
0.130721 -1.408 25.2665
0.292247 -1.3877 25.0156
0.4426 -1.38556 24.8843
0.471761 -1.38702 24.8721
0.500893 -1.38849 24.8598
0.530261 -1.39032 24.8555
0.563446 -1.38924 24.8677
0.595613 -1.3888 24.8737
0.624378 -1.38993 24.8533
0.653399 -1.39141 24.8409
0.690075 -1.38879 24.8794
0.719083 -1.39028 24.8669
0.74806 -1.39178 24.8544
0.781284 -1.39158 24.8753
0.814193 -1.39103 24.8881
0.846411 -1.39063 24.8939
0.880102 -1.38995 24.9138
0.907258 -1.39566 24.9236
0.938532 -1.39934 24.9588
0.971595 -1.39881 24.9716
1.00392 -1.39843 24.9772
1.03781 -1.39778 24.997
1.06673 -1.39931 24.984
1.09472 -1.40232 24.9752
1.13554 -1.41689 25.206
1.17069 -1.415 25.2235
1.20054 -1.41443 25.1988
1.23727 -1.41103 25.2185
1.26746 -1.41269 25.2172
1.29706 -1.41224 25.1921
1.33218 -1.41084 25.2125
1.36348 -1.41331 25.2287
1.39505 -1.41512 25.2415
1.42777 -1.41846 25.2774
1.46952 -1.41156 25.3116
1.49655 -1.41652 25.3077
-0.0266712 -1.37536 25.2877
0.00373591 -1.37523 25.2569
0.0362023 -1.37562 25.2767
0.0671403 -1.37851 25.3089
0.0998066 -1.37801 25.3154
0.129811 -1.37983 25.3112
0.326698 -1.35462 25.0416
0.472257 -1.35683 24.896
0.505615 -1.35622 24.9166
0.536095 -1.35667 24.9096
0.565228 -1.35816 24.8973
0.594331 -1.35966 24.8849
0.623404 -1.36116 24.8725
0.65694 -1.36043 24.8926
0.689143 -1.35999 24.8986
0.718173 -1.3615 24.8861
0.75038 -1.36108 24.892
0.78401 -1.36036 24.912
0.814374 -1.36084 24.9049
0.84668 -1.36118 24.9194
0.878928 -1.36077 24.9252
0.911347 -1.36162 24.9455
0.943222 -1.36386 24.9734
0.972176 -1.3654 24.9606
1.00417 -1.36496 24.9621
1.03739 -1.36538 24.9855
1.06727 -1.36588 24.9731
1.09454 -1.37162 24.9826
1.13605 -1.38417 25.2044
1.17105 -1.38062 25.2056
1.23529 -1.38007 25.2078
1.26791 -1.37972 25.2132
1.29693 -1.3813 25.1998
1.33127 -1.38067 25.2195
1.36391 -1.38033 25.2248
1.39808 -1.38258 25.2663
1.43204 -1.38594 25.314
1.46684 -1.38294 25.3161
0.0656313 -1.34887 25.3203
0.0983085 -1.34836 25.3268
0.130765 -1.34921 25.3513
0.197586 -1.33599 25.1954
0.227244 -1.33748 25.183
0.291162 -1.3321 25.1116
0.435776 -1.33586 24.9601
0.477155 -1.32547 24.9697
0.506388 -1.32698 24.9574
0.535058 -1.32781 24.9289
0.563936 -1.32899 24.9084
0.59682 -1.32838 24.9216
0.629723 -1.32778 24.9348
0.658826 -1.3293 24.9223
0.687899 -1.33082 24.9098
0.7183 -1.3313 24.9027
0.750564 -1.33161 24.9174
0.782801 -1.33118 24.9233
0.815058 -1.33076 24.9292
0.847387 -1.33108 24.9438
0.877756 -1.33158 24.9366
0.911525 -1.33086 24.9565
0.943821 -1.33045 24.9623
0.972761 -1.33201 24.9495
1.00583 -1.33146 24.9623
1.03892 -1.33091 24.975
1.107 -1.34755 25.1894
1.13708 -1.3517 25.2108
1.17179 -1.34818 25.209
1.20086 -1.34978 25.1957
1.23506 -1.34898 25.2134
1.26777 -1.34875 25.2209
1.29789 -1.34972 25.2128
1.33027 -1.35117 25.2315
1.36443 -1.34977 25.2423
1.39721 -1.35139 25.2653
1.43386 -1.35232 25.3187
0.196134 -1.30646 25.2067
0.225806 -1.30796 25.1943
0.256637 -1.30739 25.1701
0.28975 -1.30266 25.1229
0.31927 -1.30417 25.1104
0.38273 -1.29891 25.0395
0.412099 -1.30043 25.0271
0.441438 -1.30195 25.0147
0.470499 -1.30315 24.9942
0.499254 -1.30401 24.9656
0.568676 -1.29705 24.9701
0.599308 -1.29701 24.9584
0.628455 -1.29855 24.946
0.657572 -1.30009 24.9335
0.686658 -1.30163 24.921
0.717653 -1.30108 24.9095
0.752849 -1.29805 24.9237
0.783359 -1.29859 24.9187
0.813906 -1.2988 24.9107
0.847228 -1.30047 24.9525
0.876586 -1.30236 24.9479
0.912292 -1.30069 24.981
0.942675 -1.30121 24.9737
0.971628 -1.30278 24.9609
1.00548 -1.30205 24.9808
1.06301 -1.31119 25.0106
1.10622 -1.3183 25.2065
1.14047 -1.31569 25.2086
1.17141 -1.31523 25.1956
1.20046 -1.31684 25.1823
1.23374 -1.31643 25.1945
1.26734 -1.31652 25.2143
1.29721 -1.31798 25.2082
1.32915 -1.32102 25.2367
1.36736 -1.319 25.2821
1.40277 -1.31785 25.3065
0.194523 -1.27658 25.2097
0.225438 -1.27697 25.2011
0.257592 -1.27375 25.1581
0.288535 -1.27353 25.1423
0.318077 -1.27506 25.1298
0.348009 -1.27723 25.1338
0.381584 -1.26987 25.0588
0.410746 -1.27109 25.0383
0.442084 -1.26924 25.0097
0.471587 -1.27006 24.9906
0.500849 -1.2716 24.9782
0.532308 -1.27183 24.9812
0.567799 -1.26825 24.9934
0.598317 -1.26807 24.9777
0.62719 -1.2693 24.9572
0.65632 -1.27086 24.9447
0.686394 -1.27097 24.9279
0.717396 -1.26723 24.8788
0.750007 -1.26651 24.887
0.78204 -1.26726 24.9043
0.813131 -1.26612 24.8882
0.846797 -1.26535 24.9083
0.876364 -1.27168 24.955
0.909612 -1.2735 24.9963
1.07644 -1.28213 25.1871
1.0994 -1.29078 25.1742
1.13916 -1.28335 25.1908
1.17188 -1.28231 25.1914
1.20093 -1.28393 25.1781
1.23435 -1.28339 25.1908
1.26779 -1.28285 25.2035
1.3018 -1.28494 25.2452
1.33192 -1.29011 25.2742
1.36725 -1.28665 25.2784
1.39964 -1.2894 25.3076
0.193404 -1.24765 25.2375
0.224144 -1.24682 25.205
0.256303 -1.24365 25.162
0.286939 -1.24373 25.1453
0.317776 -1.2442 25.1383
0.346629 -1.24777 25.1449
0.38 -1.24018 25.0618
0.411623 -1.23764 25.0264
0.443156 -1.23511 24.9912
0.472431 -1.23666 24.9788
0.501676 -1.23822 24.9665
0.533959 -1.23774 24.9727
0.566221 -1.23798 24.9878
0.596755 -1.23847 24.9808
0.625928 -1.24004 24.9683
0.65507 -1.24161 24.9558
0.687144 -1.23648 24.9023
0.717143 -1.23661 24.8857
0.747499 -1.23712 24.8787
0.781599 -1.23517 24.8919
0.812899 -1.2355 24.8952
0.844895 -1.23632 24.9124
0.881176 -1.23429 24.9506
0.917147 -1.24576 25.1306
1.04433 -1.25175 25.1982
1.06917 -1.25876 25.1899
1.10311 -1.2554 25.1816
1.13923 -1.25203 25.1972
1.17172 -1.25134 25.1989
1.20078 -1.25299 25.1856
1.23332 -1.25389 25.2026
1.26677 -1.25333 25.2153
1.29954 -1.25485 25.2394
1.33832 -1.25107 25.2761
0.220997 -1.21839 25.203
0.256492 -1.21358 25.1936
0.285538 -1.21424 25.1564
0.315098 -1.2158 25.1439
0.412505 -1.20422 25.0146
0.441823 -1.20579 25.0022
0.47328 -1.20331 24.9671
0.502508 -1.20488 24.9547
0.534527 -1.20437 24.9568
0.565992 -1.20728 24.9962
0.595482 -1.20917 24.9919
0.624668 -1.21076 24.9794
0.653824 -1.21235 24.9669
0.686887 -1.20583 24.9092
0.715923 -1.20742 24.8968
0.750751 -1.20274 24.8873
0.784582 -1.19949 24.8822
0.812734 -1.20299 24.8814
0.843179 -1.20665 24.9116
0.875587 -1.20557 24.9126
0.911326 -1.2181 25.1039
0.945151 -1.21794 25.1291
0.975352 -1.2204 25.1378
1.00626 -1.22338 25.16
1.03942 -1.22418 25.1852
1.07541 -1.21942 25.1862
1.10451 -1.22107 25.1731
1.13748 -1.21945 25.171
1.17133 -1.21918 25.192
1.20037 -1.22084 25.1788
1.23303 -1.22357 25.2148
1.26724 -1.22271 25.2327
1.30784 -1.21728 25.274
0.411161 -1.17486 25.0256
0.442693 -1.17242 24.9904
0.474133 -1.16998 24.9552
0.503345 -1.17157 24.943
0.53624 -1.17088 24.9564
0.568156 -1.17163 24.9741
0.60012 -1.17238 24.9917
0.626544 -1.17937 25.0092
0.665161 -1.17131 25.0084
0.692423 -1.17117 24.9475
0.718782 -1.17496 24.9241
0.758714 -1.1656 24.9267
0.788298 -1.16659 24.9146
0.814351 -1.17135 24.9007
0.846549 -1.17559 24.9605
0.888508 -1.17649 25.1045
0.912657 -1.18406 25.0953
0.944576 -1.18353 25.0935
0.975176 -1.18452 25.0919
1.00812 -1.18545 25.1179
1.04331 -1.18617 25.1675
1.07509 -1.18656 25.1725
1.10554 -1.18708 25.1633
1.13845 -1.18618 25.1681
1.16987 -1.18769 25.1799
1.20303 -1.18736 25.1926
1.23656 -1.1911 25.248
1.27455 -1.18726 25.2774
1.30274 -1.19139 25.2778
-0.163141 -1.18551 25.8619
-0.128295 -1.1825 25.8526
-0.0966075 -1.1834 25.8516
-0.0656655 -1.18428 25.8312
-0.032126 -1.18451 25.8616
-0.000754784 -1.1885 25.918
0.473561 -1.14152 24.9906
0.503365 -1.14119 24.9594
0.535596 -1.14137 24.9746
0.568707 -1.14171 25.0052
0.880722 -1.1528 25.0964
0.916096 -1.14841 25.095
0.945193 -1.15007 25.0822
0.974259 -1.15173 25.0693
1.00809 -1.15153 25.0945
1.03966 -1.15493 25.1302
1.07182 -1.1561 25.1485
1.10401 -1.15728 25.1667
1.13739 -1.15666 25.1797
1.17078 -1.15605 25.1926
1.20492 -1.15588 25.2177
1.23616 -1.15819 25.2344
1.26818 -1.16235 25.2768
-0.197753 -1.15415 25.8319
-0.162901 -1.15059 25.8094
-0.128159 -1.14601 25.7599
-0.097661 -1.14761 25.7469
-0.0666836 -1.14966 25.7574
-0.0321927 -1.14635 25.7363
-0.00270323 -1.15233 25.7948
0.0343445 -1.14264 25.7006
0.0645404 -1.1454 25.7076
0.292265 -1.09312 25.4433
0.267265 -1.19811 25.4993
0.422255 -1.10584 25.1271
0.561599 -1.11869 25.0131
0.602398 -1.11946 25.167
0.819765 -1.1189 25.1008
0.846834 -1.12361 25.0959
0.881746 -1.11962 25.0931
0.914947 -1.11896 25.1063
0.944058 -1.12064 25.0935
0.973137 -1.12232 25.0806
1.00574 -1.12125 25.0815
1.0396 -1.12102 25.1068
1.07248 -1.12181 25.1301
1.10452 -1.12445 25.1622
1.13564 -1.12671 25.179
1.16973 -1.12651 25.2042
1.20258 -1.12652 25.2168
1.23955 -1.12696 25.2791
-0.228777 -1.11995 25.8322
-0.194289 -1.11492 25.7564
-0.161604 -1.11387 25.7373
-0.128833 -1.11156 25.6901
-0.0955369 -1.10965 25.6703
-0.0614391 -1.10685 25.6521
-0.029269 -1.10708 25.6549
0.00104317 -1.1087 25.642
0.0319858 -1.11045 25.6477
0.0669628 -1.10782 25.6565
0.0975153 -1.11006 25.6628
0.193298 -1.18477 25.6179
0.250978 -1.18852 25.5428
0.566735 -1.08864 25.1168
0.59998 -1.08886 25.1454
0.63183 -1.08986 25.1622
0.662338 -1.08885 25.1313
0.692485 -1.08866 25.1068
0.725923 -1.08674 25.1087
0.758422 -1.08692 25.1238
0.789028 -1.08749 25.1166
0.812494 -1.09563 25.1032
0.849129 -1.08757 25.0751
0.87982 -1.08787 25.067
0.914097 -1.08622 25.0835
0.944682 -1.08722 25.0821
0.973745 -1.08891 25.0692
1.00456 -1.08923 25.0633
1.03864 -1.08828 25.0841
1.07115 -1.0905 25.119
1.10314 -1.09236 25.1431
1.13731 -1.09139 25.1625
1.16951 -1.09374 25.1926
1.20285 -1.09671 25.241
1.23538 -1.09979 25.2801
1.2706 -1.1007 25.3266
-0.232607 -1.08934 25.7597
-0.194351 -1.08117 25.7168
-0.159662 -1.07672 25.6676
-0.127875 -1.07633 25.6428
-0.0971564 -1.07727 25.6229
-0.0656168 -1.07701 25.5976
-0.0313485 -1.0754 25.6148
0.000536596 -1.07605 25.6211
0.0316437 -1.07699 25.6138
0.0659806 -1.07539 25.6309
0.0976142 -1.07724 25.6551
0.127764 -1.07999 25.6621
0.158355 -1.0806 25.6365
0.284302 -1.07067 25.3999
0.316468 -1.06834 25.3637
0.356605 -1.05211 25.2457
0.384471 -1.05615 25.2404
0.410657 -1.06103 25.2178
0.449748 -1.04919 25.1617
0.479199 -1.05086 25.1492
0.505697 -1.05571 25.1352
0.534914 -1.05921 25.1467
0.567371 -1.05586 25.1117
0.600491 -1.05512 25.1253
0.633633 -1.05438 25.1389
0.66295 -1.05606 25.1263
0.692237 -1.05775 25.1137
0.724914 -1.05664 25.1149
0.759734 -1.05176 25.0986
0.789856 -1.05338 25.0982
0.818916 -1.05575 25.0923
0.848955 -1.05493 25.061
0.8804 -1.05409 25.0496
0.912894 -1.05428 25.0646
0.945309 -1.05382 25.0706
0.974358 -1.05553 25.0578
1.00678 -1.05508 25.0638
1.03933 -1.05529 25.0786
1.06885 -1.05905 25.0943
1.10091 -1.06135 25.1243
1.13658 -1.0603 25.1615
1.1688 -1.06153 25.1807
1.20039 -1.06631 25.2281
1.23901 -1.06434 25.2864
1.26811 -1.07211 25.3327
-0.261904 -1.05384 25.7741
-0.226075 -1.04865 25.7337
-0.190761 -1.04297 25.6644
-0.159004 -1.04274 25.6414
-0.124823 -1.03954 25.6137
-0.0939559 -1.04053 25.6001
-0.063321 -1.0415 25.5803
-0.0329408 -1.04353 25.5804
0.000383903 -1.04231 25.5821
0.033702 -1.04109 25.5838
0.0640719 -1.04313 25.5838
0.0965711 -1.04389 25.6078
0.129703 -1.04401 25.6321
0.162673 -1.0454 25.6766
0.196297 -1.04374 25.6731
0.249853 -1.03843 25.3433
0.283136 -1.03409 25.2935
0.31918 -1.03236 25.347
0.381918 -1.02732 25.2427
0.413449 -1.02474 25.1959
0.444773 -1.02208 25.1465
0.471137 -1.02986 25.1747
0.507321 -1.02299 25.1478
0.536724 -1.02467 25.1353
0.568012 -1.02311 25.1066
0.597936 -1.0245 25.0995
0.631138 -1.02382 25.1156
0.663723 -1.02263 25.1145
0.692993 -1.02433 25.1019
0.72321 -1.02407 25.0778
0.757304 -1.02138 25.0798
0.789062 -1.02177 25.0878
0.819609 -1.02236 25.0806
0.848746 -1.02407 25.068
0.879249 -1.02467 25.0608
0.911754 -1.02484 25.0758
0.944182 -1.02437 25.0818
0.973243 -1.0261 25.069
1.00567 -1.02564 25.075
1.0406 -1.02329 25.0912
1.06869 -1.02645 25.0825
1.1026 -1.02614 25.1078
1.1343 -1.02939 25.1436
1.1662 -1.03204 25.1743
1.20203 -1.03097 25.2116
1.23555 -1.03429 25.2661
1.27206 -1.03674 25.3442
-0.261655 -1.01971 25.726
-0.223815 -1.01275 25.7026
-0.193619 -1.01261 25.6252
-0.161492 -1.01151 25.5897
-0.129648 -1.01069 25.556
-0.0948198 -1.00755 25.5532
-0.0605297 -1.00429 25.5315
-0.0292504 -1.00519 25.5308
0.00106342 -1.00721 25.5309
0.0310498 -1.01014 25.5435
0.0673919 -1.00443 25.5216
0.0994653 -1.00625 25.5604
0.129456 -1.01102 25.6111
0.16311 -1.01031 25.6297
0.193502 -0.997185 25.3241
0.223914 -0.997649 25.3013
0.255182 -0.997288 25.2826
0.285431 -0.998663 25.2757
0.319154 -0.99723 25.2889
0.375295 -1.00088 25.2067
0.407898 -0.997894 25.1736
0.440053 -0.995254 25.1394
0.475506 -0.990725 25.1356
0.507793 -0.989192 25.1234
0.537755 -0.990587 25.1165
0.568014 -0.990469 25.0921
0.598314 -0.990758 25.0753
0.630724 -0.99024 25.0817
0.664499 -0.98922 25.1026
0.693753 -0.990936 25.09
0.722001 -0.994071 25.0817
0.7554 -0.992155 25.0837
0.787875 -0.992287 25.0989
0.818435 -0.992886 25.0918
0.847584 -0.994619 25.0791
0.881848 -0.991557 25.0787
0.914761 -0.990336 25.0824
0.944817 -0.991018 25.0703
0.973862 -0.992764 25.0575
1.00664 -0.991813 25.0626
1.04032 -0.990685 25.0772
1.06921 -0.993756 25.0778
1.10021 -0.995931 25.0947
1.13325 -0.997014 25.1242
1.16722 -0.998079 25.1636
1.20129 -0.999829 25.2106
1.23334 -1.00246 25.2414
1.26907 -1.00475 25.3103
-0.293862 -0.986729 25.709
-0.265328 -0.98991 25.669
-0.2271 -0.982357 25.6438
-0.193897 -0.979847 25.5984
-0.160761 -0.977569 25.5617
-0.127723 -0.975303 25.5252
-0.0961425 -0.975011 25.5006
-0.0622801 -0.971451 25.4593
-0.0321821 -0.973126 25.4469
-0.00148241 -0.974826 25.4527
0.0332254 -0.972156 25.4617
0.0633508 -0.974881 25.4756
0.0977501 -0.972626 25.4844
0.12759 -0.977596 25.539
0.160595 -0.96326 25.2556
0.187721 -0.968617 25.2583
0.21986 -0.966414 25.2225
0.252712 -0.965227 25.2242
0.285068 -0.966144 25.2551
0.319901 -0.963621 25.2722
0.34392 -0.979376 25.3977
0.375643 -0.970513 25.2382
0.407999 -0.965188 25.1588
0.439528 -0.964065 25.1378
0.471096 -0.962256 25.1071
0.505984 -0.958378 25.1047
0.538412 -0.95784 25.1112
0.567751 -0.959558 25.0987
0.59706 -0.961279 25.0863
0.627686 -0.961864 25.0793
0.660105 -0.961959 25.0947
0.693517 -0.960035 25.0968
0.72177 -0.963179 25.0884
0.755442 -0.961049 25.0916
0.789848 -0.958438 25.0994
0.819135 -0.959536 25.08
0.848269 -0.961284 25.0674
0.881453 -0.959648 25.07
0.916394 -0.955932 25.0714
0.945455 -0.957689 25.0587
0.974485 -0.959449 25.046
1.00843 -0.958462 25.0664
1.04085 -0.957997 25.0725
1.07027 -0.959999 25.0678
1.10384 -0.961032 25.1048
1.13402 -0.964672 25.1271
1.16714 -0.965726 25.1567
1.19896 -0.968915 25.1925
1.23099 -0.971506 25.2233
1.26807 -0.974505 25.3164
1.30018 -0.976417 25.3388
-0.260605 -0.952292 25.6709
-0.226248 -0.948734 25.6291
-0.191486 -0.944404 25.5808
-0.159145 -0.942963 25.5415
-0.125855 -0.938155 25.4362
-0.0946457 -0.93998 25.4638
-0.0618733 -0.938405 25.4438
-0.0317961 -0.940095 25.4314
0.00242327 -0.937384 25.4262
0.0383183 -0.932612 25.4169
0.0672252 -0.936636 25.4316
0.0963304 -0.940936 25.4563
0.126458 -0.933948 25.2512
0.159567 -0.931166 25.2237
0.190516 -0.931288 25.2079
0.220627 -0.932577 25.1975
0.252119 -0.933159 25.2047
0.284186 -0.93439 25.2367
0.314414 -0.936751 25.2492
0.35137 -0.933551 25.2983
0.407707 -0.934194 25.1654
0.439401 -0.932073 25.1298
0.471003 -0.929951 25.0944
0.503422 -0.9294 25.101
0.537135 -0.928309 25.1221
0.566487 -0.930044 25.1097
0.595809 -0.931783 25.0972
0.627049 -0.931397 25.0858
0.660759 -0.929278 25.0902
0.69345 -0.927456 25.0823
0.722521 -0.929848 25.0766
0.755724 -0.928189 25.0793
0.789724 -0.925853 25.0851
0.819839 -0.92621 25.0683
0.85035 -0.926831 25.0612
0.882839 -0.92694 25.0763
0.915261 -0.92645 25.0825
0.944335 -0.928225 25.0698
0.976763 -0.927744 25.0759
1.00932 -0.927874 25.0909
1.03977 -0.928519 25.0837
1.07222 -0.928053 25.0897
1.10627 -0.927058 25.1101
1.1337 -0.932057 25.1132
1.16592 -0.933773 25.1396
1.19787 -0.936527 25.1731
1.23026 -0.940373 25.2222
1.26888 -0.939736 25.2971
1.30262 -0.944296 25.3661
-0.294153 -0.923013 25.7327
-0.260738 -0.920372 25.6784
-0.224569 -0.914064 25.6088
-0.191414 -0.91167 25.5635
-0.160178 -0.909474 25.4579
-0.12987 -0.910349 25.4253
-0.0948237 -0.907026 25.4296
-0.0595583 -0.903209 25.4264
-0.0295075 -0.904913 25.414
0.00203585 -0.904182 25.3823
0.0351073 -0.900744 25.3272
0.0668686 -0.896277 25.2138
0.0939385 -0.901606 25.2167
0.124916 -0.901401 25.1928
0.157067 -0.899287 25.1573
0.188143 -0.899389 25.1459
0.220531 -0.899252 25.1611
0.251528 -0.901135 25.1852
0.284893 -0.900568 25.2118
0.317174 -0.905081 25.3118
0.349807 -0.903598 25.3009
0.408404 -0.901411 25.1599
0.439277 -0.900099 25.1219
0.469709 -0.900434 25.1052
0.504608 -0.896536 25.1025
0.537989 -0.894953 25.11
0.567324 -0.896703 25.0976
0.596629 -0.898456 25.0851
0.627529 -0.898438 25.0736
0.661454 -0.895893 25.0758
0.694073 -0.894774 25.0772
0.723276 -0.89654 25.0647
0.756384 -0.895741 25.0783
0.789513 -0.894946 25.0919
0.818673 -0.896724 25.0793
0.851102 -0.896217 25.0855
0.883614 -0.896311 25.1007
0.914131 -0.89695 25.0936
0.943217 -0.898742 25.0809
0.976421 -0.897978 25.0942
1.00965 -0.897218 25.1076
1.03869 -0.899022 25.0948
1.07194 -0.898273 25.1081
1.10522 -0.897529 25.1214
1.13421 -0.899344 25.1085
1.16821 -0.898927 25.1339
1.19929 -0.901706 25.1576
1.23189 -0.905127 25.2057
1.26533 -0.908895 25.2662
1.30043 -0.913338 25.3515
-0.297801 -0.894083 25.7004
-0.259432 -0.886308 25.6651
-0.222885 -0.879452 25.5884
-0.19052 -0.875799 25.4648
-0.161537 -0.878733 25.4484
-0.127328 -0.875777 25.4332
-0.0966655 -0.87744 25.4393
-0.0623589 -0.871598 25.3427
-0.0320601 -0.872684 25.3235
0.00124306 -0.868484 25.2531
0.0313173 -0.870662 25.261
0.0628987 -0.868872 25.2099
0.0945291 -0.867364 25.1707
0.126597 -0.866191 25.154
0.157425 -0.866134 25.132
0.187882 -0.867117 25.1252
0.220596 -0.866566 25.1405
0.252275 -0.868336 25.1795
0.282963 -0.870321 25.1976
0.314922 -0.87442 25.2851
0.350178 -0.870669 25.2881
0.376177 -0.873819 25.2243
0.40843 -0.869285 25.1523
0.438999 -0.869141 25.1284
0.470393 -0.867737 25.0998
0.504552 -0.863844 25.0832
0.537518 -0.862783 25.0922
0.568165 -0.863386 25.0854
0.597453 -0.865154 25.073
0.629853 -0.864607 25.0795
0.662262 -0.864648 25.095
0.692862 -0.865268 25.0881
0.722078 -0.867051 25.0756
0.755903 -0.865948 25.0965
0.788336 -0.865424 25.1028
0.81751 -0.867219 25.0902
0.850681 -0.866419 25.1038
0.883872 -0.865624 25.1173
0.913002 -0.86743 25.1046
0.942101 -0.86924 25.0919
0.976083 -0.868175 25.1126
1.00855 -0.867684 25.1187
1.03761 -0.869506 25.1059
1.07087 -0.868741 25.1193
1.10416 -0.86798 25.1326
1.13317 -0.869813 25.1197
1.16648 -0.869064 25.1329
1.19982 -0.868319 25.1461
1.23179 -0.871801 25.188
1.26638 -0.875052 25.2581
1.30541 -0.877112 25.3667
-0.296819 -0.859001 25.6249
-0.261509 -0.855597 25.6301
-0.193255 -0.847068 25.4715
-0.159043 -0.843941 25.4478
-0.129396 -0.84592 25.4256
-0.0939124 -0.83989 25.3584
-0.0631962 -0.839842 25.3164
-0.0329423 -0.838522 25.2243
0.000141354 -0.835476 25.1813
0.0301981 -0.836584 25.1623
0.0613589 -0.83594 25.1312
0.0920882 -0.836275 25.1148
0.124396 -0.834521 25.092
0.156684 -0.834335 25.1073
0.189723 -0.833008 25.1151
0.219072 -0.835749 25.1204
0.250679 -0.836673 25.1409
0.281979 -0.840169 25.2068
0.318285 -0.837998 25.2686
0.349255 -0.83895 25.2696
0.377122 -0.840363 25.2119
0.407204 -0.839197 25.1558
0.438724 -0.838176 25.1348
0.470474 -0.835211 25.085
0.50389 -0.833244 25.0874
0.536251 -0.833247 25.103
0.56691 -0.83386 25.0962
0.596211 -0.835645 25.0838
0.628622 -0.83509 25.0904
0.661041 -0.835113 25.1058
0.691654 -0.835742 25.0989
0.72225 -0.836376 25.092
0.754717 -0.836414 25.1074
0.787163 -0.835884 25.1138
0.816349 -0.837696 25.1012
0.849531 -0.83688 25.1148
0.882734 -0.836068 25.1283
0.911876 -0.837892 25.1156
0.944353 -0.837385 25.1219
0.976945 -0.83746 25.137
1.00746 -0.838131 25.1298
1.03653 -0.83997 25.117
1.0706 -0.838896 25.1376
1.10311 -0.838413 25.1438
1.13358 -0.839101 25.1364
1.16627 -0.839206 25.1514
1.1988 -0.838737 25.1574
1.23218 -0.837983 25.1706
1.26409 -0.841637 25.2133
1.29911 -0.845229 25.2917
1.3363 -0.845859 25.3625
-0.284244 -0.814651 25.7219
-0.259677 -0.822446 25.68
-0.197829 -0.81932 25.4338
-0.16067 -0.813639 25.4415
-0.125449 -0.808298 25.3813
-0.0956023 -0.808016 25.2933
-0.0645698 -0.807362 25.2442
-0.0307489 -0.80348 25.1969
0.000532245 -0.802869 25.1658
0.0336119 -0.800097 25.1329
0.0635807 -0.801231 25.1141
0.0935045 -0.802366 25.0952
0.124202 -0.802375 25.0712
0.156816 -0.801775 25.0866
0.18912 -0.801237 25.0945
0.218727 -0.804273 25.114
0.24901 -0.806778 25.1373
0.284345 -0.805901 25.2091
0.317182 -0.807642 25.2725
0.349757 -0.806199 25.2618
0.375907 -0.80891 25.19
0.407959 -0.806802 25.1579
0.438613 -0.806241 25.1267
0.470209 -0.80429 25.0914
0.500885 -0.804903 25.0846
0.533244 -0.804887 25.1003
0.565658 -0.804315 25.107
0.595971 -0.804731 25.0903
0.626982 -0.804604 25.0784
0.659824 -0.80556 25.1167
0.691432 -0.804813 25.1055
0.721056 -0.806842 25.1028
0.754459 -0.80539 25.1119
0.78696 -0.804938 25.1204
0.81519 -0.808154 25.1121
0.848383 -0.807322 25.1257
0.881597 -0.806493 25.1393
0.910753 -0.808335 25.1266
0.943998 -0.807518 25.1402
0.977263 -0.806705 25.1537
1.00637 -0.808559 25.1409
1.03889 -0.80806 25.1471
1.07155 -0.808133 25.1622
1.10205 -0.808826 25.1549
1.13459 -0.808341 25.161
1.16731 -0.80843 25.176
1.19779 -0.809136 25.1686
1.23118 -0.808366 25.1819
1.2646 -0.8076 25.1951
1.29328 -0.813683 25.2238
1.33173 -0.81473 25.3163
-0.294012 -0.792858 25.694
-0.228961 -0.786336 25.4293
-0.192366 -0.781933 25.4644
-0.160802 -0.781808 25.4402
-0.0967084 -0.777096 25.2789
-0.0620983 -0.771892 25.211
-0.0288466 -0.76854 25.1593
0.00064857 -0.770302 25.1402
0.0331476 -0.768336 25.1121
0.064714 -0.767945 25.1012
0.0943116 -0.7697 25.0893
0.12388 -0.771458 25.0773
0.156227 -0.770814 25.0844
0.188421 -0.770723 25.1005
0.220441 -0.770994 25.1192
0.250822 -0.775049 25.1813
0.284169 -0.774354 25.2081
0.315832 -0.777888 25.2833
0.377141 -0.775379 25.1809
0.407863 -0.774853 25.1497
0.438505 -0.774326 25.1186
0.469949 -0.773361 25.0977
0.501763 -0.772 25.0782
0.534362 -0.77159 25.0922
0.566511 -0.77105 25.0947
0.595981 -0.772266 25.0755
0.629685 -0.770004 25.0786
0.660599 -0.771947 25.0986
0.691384 -0.772329 25.0909
0.722088 -0.772982 25.0861
0.754756 -0.772617 25.0996
0.786854 -0.772435 25.1059
0.815911 -0.774882 25.1001
0.849116 -0.774427 25.1198
0.882186 -0.773791 25.1342
0.911333 -0.775649 25.1215
0.945049 -0.774383 25.1365
0.977905 -0.773384 25.1419
1.00693 -0.775856 25.1359
1.04028 -0.774436 25.1426
1.07243 -0.775353 25.1613
1.10259 -0.776107 25.15
1.13475 -0.777121 25.1691
1.16865 -0.776236 25.1886
1.19677 -0.779516 25.1798
1.23018 -0.77873 25.1931
1.26361 -0.777947 25.2064
1.29891 -0.777815 25.2497
1.33827 -0.779029 25.3562
-0.225653 -0.751351 25.4609
-0.192491 -0.75008 25.4631
-0.162325 -0.751853 25.4508
-0.0960614 -0.744268 25.2654
-0.0640233 -0.741276 25.1712
-0.0341891 -0.743191 25.1676
4.84518e-006 -0.738975 25.1251
0.0320395 -0.737981 25.1103
0.063178 -0.738217 25.1033
0.0939894 -0.738762 25.0953
0.123733 -0.740078 25.076
0.15516 -0.740704 25.0897
0.187042 -0.741151 25.1109
0.220983 -0.739577 25.1378
0.251585 -0.742297 25.1755
0.287632 -0.74017 25.24
0.311163 -0.751044 25.2755
0.37706 -0.743416 25.1727
0.407769 -0.742923 25.1415
0.439268 -0.74198 25.1206
0.470042 -0.740908 25.0828
0.502661 -0.738452 25.06
0.534987 -0.738398 25.0757
0.567368 -0.73781 25.0824
0.596646 -0.739641 25.0701
0.627242 -0.740287 25.0633
0.661432 -0.739031 25.0923
0.692024 -0.739686 25.0855
0.722599 -0.740345 25.0786
0.755045 -0.740329 25.0941
0.787469 -0.739775 25.1006
0.816635 -0.741634 25.0881
0.849796 -0.740769 25.1018
0.882979 -0.739909 25.1155
0.911155 -0.74316 25.1071
0.945315 -0.740931 25.1165
0.97855 -0.740086 25.1301
1.0067 -0.74335 25.1215
1.03963 -0.742511 25.1301
1.07418 -0.740308 25.1444
1.1023 -0.743583 25.1357
1.13615 -0.74267 25.1553
1.16832 -0.74367 25.1744
1.19731 -0.746178 25.1682
1.22742 -0.748473 25.1743
1.26262 -0.748276 25.2176
1.2961 -0.747484 25.2309
1.3321 -0.751093 25.3236
1.36485 -0.750629 25.3296
-0.196023 -0.721668 25.4415
-0.162317 -0.720455 25.4751
-0.0632862 -0.709229 25.1849
-0.0310495 -0.70773 25.1556
0.000942637 -0.706604 25.1325
0.0320338 -0.706734 25.1189
0.0644355 -0.705131 25.0987
0.0940265 -0.706916 25.0867
0.124839 -0.706882 25.0632
0.156987 -0.706482 25.072
0.187994 -0.708984 25.1227
0.219333 -0.709707 25.1341
0.250939 -0.710538 25.1547
0.287349 -0.707146 25.2018
0.321348 -0.70817 25.2847
0.347667 -0.710316 25.1965
0.376982 -0.711472 25.1644
0.408536 -0.71055 25.1435
0.439385 -0.709521 25.1056
0.470745 -0.708284 25.0772
0.501398 -0.708922 25.0705
0.533734 -0.70885 25.0863
0.567132 -0.706885 25.0888
0.597316 -0.707043 25.0646
0.626627 -0.709815 25.0695
0.660719 -0.706705 25.0659
0.692818 -0.706487 25.0733
0.722009 -0.708348 25.0609
0.753701 -0.709831 25.0872
0.786306 -0.710204 25.1114
0.815484 -0.71208 25.0989
0.848657 -0.711198 25.1126
0.88185 -0.710321 25.1264
0.910986 -0.71221 25.1137
0.944211 -0.711344 25.1274
0.977457 -0.710483 25.141
1.00655 -0.712384 25.1283
1.03904 -0.711862 25.1346
1.07312 -0.710689 25.1554
1.10217 -0.712602 25.1426
1.1355 -0.711768 25.156
1.16885 -0.710938 25.1695
1.19785 -0.712863 25.1566
1.23195 -0.712276 25.1822
1.26313 -0.714908 25.2061
1.29437 -0.717544 25.2299
1.33504 -0.714797 25.3121
1.36705 -0.721765 25.3906
-0.197207 -0.690913 25.4321
-0.163833 -0.690447 25.4856
-0.0732251 -0.687558 25.1341
-0.0337366 -0.678223 25.1205
-0.000495753 -0.676975 25.1429
0.0306072 -0.677121 25.1292
0.0643017 -0.67373 25.0973
0.0938894 -0.675531 25.0854
0.125944 -0.674318 25.0675
0.156323 -0.676319 25.088
0.187997 -0.67712 25.1141
0.21797 -0.680084 25.1445
0.251534 -0.678738 25.1663
0.283321 -0.67913 25.18
0.342085 -0.68426 25.1799
0.377752 -0.679072 25.1664
0.408676 -0.678085 25.1284
0.4401 -0.676878 25.0999
0.469473 -0.678727 25.0877
0.500975 -0.676962 25.0525
0.533972 -0.676012 25.0666
0.567173 -0.674489 25.0739
0.598339 -0.673306 25.0455
0.62656 -0.676535 25.0374
0.660574 -0.674239 25.0471
0.693616 -0.673314 25.0611
0.722791 -0.675188 25.0487
0.754237 -0.676057 25.0616
0.78718 -0.676412 25.0925
0.816216 -0.67888 25.0868
0.849373 -0.677983 25.1006
0.88255 -0.677089 25.1143
0.91167 -0.678992 25.1018
0.943849 -0.678808 25.1088
0.978109 -0.677233 25.1291
1.0064 -0.68141 25.135
1.03721 -0.681395 25.1228
1.07164 -0.680912 25.1582
1.10113 -0.682982 25.1536
1.13447 -0.682132 25.1671
1.16783 -0.681286 25.1806
1.19684 -0.683228 25.1677
1.23023 -0.682394 25.1811
1.26364 -0.681564 25.1945
1.29666 -0.682655 25.2241
1.33219 -0.684447 25.2932
1.36673 -0.687965 25.3666
-0.193074 -0.655676 25.5026
-0.161191 -0.653691 25.3965
-0.0326486 -0.646307 25.152
0.000561789 -0.642416 25.076
0.0322896 -0.643551 25.1243
0.0628905 -0.644133 25.1076
0.0949963 -0.642937 25.0897
0.126629 -0.643115 25.0987
0.157283 -0.644735 25.1169
0.187851 -0.645709 25.1129
0.226844 -0.639882 25.1784
0.256272 -0.642782 25.1915
0.312216 -0.65056 25.1787
0.340786 -0.654417 25.1868
0.377915 -0.646601 25.1511
0.409404 -0.645425 25.1226
0.441038 -0.643698 25.0873
0.470393 -0.645561 25.0752
0.501877 -0.643831 25.04
0.531143 -0.645697 25.0278
0.56477 -0.644382 25.0492
0.597115 -0.643775 25.056
0.626342 -0.645654 25.0437
0.655539 -0.647537 25.0314
0.690191 -0.644813 25.0464
0.722592 -0.644299 25.0551
0.750769 -0.647552 25.047
0.783849 -0.646627 25.0608
0.816952 -0.645705 25.0747
0.846067 -0.647613 25.0622
0.879201 -0.646704 25.076
0.912357 -0.645798 25.0898
0.941429 -0.647719 25.0772
0.974617 -0.646825 25.0909
1.00618 -0.648974 25.1205
1.03593 -0.649234 25.096
1.07074 -0.647189 25.1177
1.10177 -0.649158 25.135
1.13141 -0.651878 25.1412
1.16679 -0.648897 25.1573
1.19739 -0.64996 25.156
1.22852 -0.652522 25.1799
1.26266 -0.651877 25.2056
1.29612 -0.651038 25.219
1.32935 -0.654153 25.2744
1.36798 -0.654647 25.3675
0.0297626 -0.613637 25.079
0.0635838 -0.611113 25.082
0.094554 -0.612638 25.112
0.127103 -0.612231 25.1347
0.158294 -0.612572 25.1319
0.190331 -0.612643 25.1487
0.222222 -0.61347 25.1804
0.248831 -0.619385 25.1872
0.314976 -0.617332 25.2163
0.346862 -0.615629 25.1807
0.378657 -0.613923 25.1453
0.410588 -0.611676 25.1031
0.441979 -0.610543 25.0747
0.471316 -0.612419 25.0626
0.500624 -0.614299 25.0504
0.530912 -0.614828 25.034
0.561887 -0.614778 25.0223
0.597548 -0.610496 25.0313
0.627181 -0.612563 25.0314
0.656521 -0.6139 25.0124
0.687207 -0.614842 25.0138
0.721652 -0.612272 25.028
0.751541 -0.614456 25.0348
0.781445 -0.616644 25.0415
0.816873 -0.612298 25.0435
0.84679 -0.614498 25.0501
0.876722 -0.616701 25.0567
0.912303 -0.613004 25.0704
0.941277 -0.616797 25.0837
0.973532 -0.617244 25.1016
1.00675 -0.616337 25.1154
1.03579 -0.618288 25.1027
1.06904 -0.617394 25.1163
1.10232 -0.616504 25.1299
1.13131 -0.618467 25.1172
1.16462 -0.617589 25.1307
1.19794 -0.616715 25.1442
1.23082 -0.617719 25.174
1.26318 -0.618579 25.1939
1.29515 -0.621316 25.2301
1.33505 -0.61808 25.3002
1.36758 -0.621489 25.3485
0.061016 -0.582809 25.0915
0.0936905 -0.581582 25.0937
0.129481 -0.57728 25.11
0.159344 -0.579354 25.1156
0.19305 -0.577766 25.1405
0.31365 -0.587595 25.2267
0.347859 -0.582373 25.1679
0.379637 -0.580724 25.1326
0.411326 -0.579071 25.0973
0.440705 -0.580961 25.0852
0.472245 -0.579325 25.05
0.501535 -0.581219 25.0379
0.531918 -0.58093 25.0071
0.562129 -0.581477 24.9908
0.595065 -0.580485 25.0049
0.628024 -0.579498 25.019
0.657187 -0.581408 25.0068
0.68632 -0.583321 24.9946
0.719308 -0.582351 25.0085
0.752317 -0.581384 25.0225
0.78141 -0.583311 25.0102
0.814453 -0.582357 25.0241
0.847517 -0.581407 25.038
0.876569 -0.583346 25.0256
0.910235 -0.582573 25.0516
0.941841 -0.582827 25.0573
0.970814 -0.586612 25.0706
1.00566 -0.583905 25.0857
1.03643 -0.585138 25.0908
1.06606 -0.587274 25.0904
1.10189 -0.583059 25.099
1.1319 -0.585299 25.1053
1.16292 -0.587787 25.1294
1.19694 -0.587067 25.1552
1.22948 -0.586545 25.1614
1.2637 -0.585305 25.1822
1.29566 -0.588005 25.2184
1.32919 -0.589485 25.2604
1.36559 -0.590823 25.3369
0.317009 -0.550776 25.1905
0.34655 -0.55268 25.1784
0.380622 -0.547551 25.1198
0.410042 -0.549454 25.1077
0.441655 -0.547857 25.0725
0.473178 -0.546257 25.0374
0.50245 -0.548164 25.0253
0.531693 -0.550074 25.0132
0.560907 -0.551988 25.0011
0.593196 -0.551355 25.008
0.627194 -0.548011 24.9995
0.657858 -0.548943 25.0011
0.686982 -0.550871 24.989
0.716965 -0.552486 24.9891
0.751684 -0.549299 24.9987
0.782174 -0.550299 24.998
0.811744 -0.552389 24.9979
0.847522 -0.548734 25.0185
0.87641 -0.552477 25.0319
0.908565 -0.552867 25.05
0.941694 -0.551916 25.0638
0.970716 -0.553886 25.0513
1.00388 -0.552947 25.065
1.03706 -0.552013 25.0788
1.06604 -0.553995 25.0662
1.09925 -0.553073 25.0798
1.13249 -0.552155 25.0935
1.1628 -0.55446 25.1053
1.1964 -0.553626 25.1243
1.22645 -0.555877 25.1306
1.2583 -0.557965 25.16
1.29617 -0.554716 25.2067
1.32818 -0.557382 25.243
1.36578 -0.557329 25.3208
0.347313 -0.520011 25.1724
0.379329 -0.5179 25.1302
0.411014 -0.516342 25.0949
0.442609 -0.51478 25.0598
0.471923 -0.5167 25.0477
0.501207 -0.518624 25.0356
0.532596 -0.51708 25.0006
0.561792 -0.519007 24.9886
0.590959 -0.520938 24.9765
0.624256 -0.517981 24.9608
0.656905 -0.517564 24.9808
0.686968 -0.518701 24.974
0.716044 -0.520646 24.9619
0.74997 -0.518307 24.9717
0.782942 -0.517312 24.9857
0.811971 -0.519269 24.9734
0.845514 -0.51842 24.9996
0.876279 -0.520257 25.0172
0.90576 -0.522902 25.0238
0.939304 -0.521065 25.032
0.971308 -0.521376 25.046
1.00097 -0.522961 25.039
1.03458 -0.523654 25.0838
1.065 -0.52442 25.0769
1.09822 -0.523481 25.0906
1.13147 -0.522546 25.1043
1.16042 -0.524558 25.0916
1.19369 -0.523636 25.1052
1.22699 -0.522717 25.1188
1.25987 -0.523619 25.1486
1.29222 -0.526689 25.1969
1.32718 -0.525315 25.2256
1.3601 -0.529431 25.2909
0.349179 -0.48652 25.1776
0.37804 -0.488233 25.1405
0.411989 -0.483256 25.0821
0.441345 -0.48519 25.0701
0.471694 -0.485794 25.0537
0.502131 -0.485621 25.023
0.533502 -0.484111 24.988
0.562681 -0.486052 24.976
0.59183 -0.487996 24.9639
0.622291 -0.488703 24.9575
0.654527 -0.488516 24.9733
0.68678 -0.487881 24.9802
0.715861 -0.489842 24.968
0.748821 -0.488825 24.982
0.781803 -0.487813 24.9961
0.810844 -0.489787 24.9838
0.84386 -0.488787 24.9978
0.876897 -0.487791 25.0117
0.905898 -0.489778 24.9994
0.938968 -0.488795 25.0133
0.971122 -0.489153 25.0313
1.00009 -0.491155 25.0188
1.03242 -0.491621 25.0403
1.06568 -0.490826 25.0581
1.09522 -0.493498 25.0645
1.13024 -0.490243 25.0746
1.16099 -0.491477 25.0797
1.192 -0.493883 25.1037
1.22601 -0.493074 25.1296
1.25935 -0.492146 25.1432
1.29125 -0.494714 25.1795
1.32322 -0.496751 25.209
1.36496 -0.495262 25.3295
0.346111 -0.458321 25.1745
0.378802 -0.455635 25.1345
0.410716 -0.453632 25.0924
0.440083 -0.455583 25.0803
0.471825 -0.453599 25.0384
0.503058 -0.452644 25.0103
0.532278 -0.454598 24.9982
0.561468 -0.456555 24.9862
0.59063 -0.458517 24.9742
0.621102 -0.459232 24.9677
0.652835 -0.458912 24.9695
0.686594 -0.457055 24.9862
0.715681 -0.459032 24.9741
0.748838 -0.457274 24.9787
0.780954 -0.456663 24.9827
0.811483 -0.457382 24.9783
0.842209 -0.459166 24.996
0.875794 -0.458257 25.0222
0.904806 -0.460262 25.0098
0.937887 -0.459261 25.0238
0.97099 -0.458265 25.0377
0.999961 -0.460282 25.0252
1.0331 -0.459299 25.039
1.06625 -0.458319 25.0528
1.09518 -0.460349 25.0403
1.12837 -0.459382 25.054
1.16158 -0.458419 25.0677
1.19432 -0.459233 25.0976
1.22656 -0.459963 25.1177
1.25839 -0.462468 25.154
1.29177 -0.461527 25.1677
1.32738 -0.46145 25.2232
1.36337 -0.46183 25.2878
0.344925 -0.428217 25.1775
0.378996 -0.423358 25.1189
0.409446 -0.423992 25.1026
0.44105 -0.422563 25.0675
0.472564 -0.42113 25.0325
0.501825 -0.423097 25.0205
0.531057 -0.425068 25.0084
0.562181 -0.42416 24.9803
0.591509 -0.425626 24.9615
0.620793 -0.427093 24.9428
0.653645 -0.42587 24.9529
0.686592 -0.424961 24.9712
0.71566 -0.426951 24.9591
0.747879 -0.426305 24.9652
0.781407 -0.424111 24.9702
0.812365 -0.423966 24.9592
0.844152 -0.424587 24.9784
0.875972 -0.425213 24.9977
0.905519 -0.427323 24.9976
0.938631 -0.426619 25.0175
0.971591 -0.425804 25.0322
0.998905 -0.430731 25.0357
1.03205 -0.42973 25.0496
1.06522 -0.428733 25.0634
1.09416 -0.430781 25.0509
1.12736 -0.429797 25.0646
1.16058 -0.428816 25.0784
1.19383 -0.427844 25.0921
1.22711 -0.426876 25.1058
1.25563 -0.432531 25.1348
1.29081 -0.431814 25.1785
1.32424 -0.430864 25.1921
1.35939 -0.433767 25.2779
0.34468 -0.397146 25.1834
0.378758 -0.392354 25.1249
0.408179 -0.394335 25.1128
0.44202 -0.38957 25.0546
0.471322 -0.39155 25.0426
0.500595 -0.393534 25.0306
0.531975 -0.392156 24.9957
0.562262 -0.392093 24.9651
0.592392 -0.392762 24.9489
0.621489 -0.394752 24.9369
0.654369 -0.393667 24.9512
0.687272 -0.392586 24.9654
0.716331 -0.39459 24.9533
0.748569 -0.39394 24.9602
0.780855 -0.393718 24.976
0.811247 -0.394475 24.9695
0.843515 -0.393842 24.9763
0.875863 -0.393637 24.992
0.906235 -0.394408 24.9853
0.939284 -0.393374 24.9993
0.971416 -0.393666 25.0174
0.999572 -0.397776 25.0235
1.0327 -0.396759 25.0374
1.06585 -0.395744 25.0513
1.09478 -0.397806 25.0388
1.12471 -0.399996 25.0453
1.15958 -0.399196 25.089
1.19285 -0.398206 25.1028
1.22614 -0.397221 25.1165
1.26125 -0.396447 25.1603
1.28986 -0.402082 25.1893
1.32416 -0.4007 25.2103
1.35846 -0.403924 25.2889
0.314032 -0.365432 25.2141
0.345706 -0.364033 25.1703
0.379534 -0.359811 25.1187
0.40917 -0.361312 25.0999
0.440769 -0.359956 25.0648
0.470083 -0.361954 25.0528
0.501332 -0.361107 25.0246
0.532897 -0.359271 24.9829
0.562064 -0.361271 24.971
0.591201 -0.363275 24.959
0.62165 -0.364014 24.9526
0.653873 -0.36375 24.9686
0.686112 -0.36308 24.9756
0.715183 -0.365102 24.9635
0.747432 -0.364443 24.9705
0.779728 -0.364202 24.9863
0.810131 -0.364968 24.9797
0.843135 -0.363899 24.9938
0.876161 -0.362835 25.0079
0.905152 -0.364883 24.9957
0.938211 -0.363831 25.0097
0.971292 -0.362784 25.0237
1.00024 -0.364845 25.0113
1.03336 -0.363811 25.0252
1.06649 -0.36278 25.0391
1.09684 -0.36359 25.0323
1.1302 -0.363999 25.0705
1.16017 -0.366191 25.077
1.19187 -0.368551 25.1134
1.22517 -0.367548 25.1272
1.25851 -0.366553 25.1409
1.29155 -0.369054 25.1966
1.33215 -0.365198 25.2795
