0.701581 -2.13331 25.1308
0.733965 -2.13483 25.1497
0.765763 -2.13531 25.1541
0.796029 -2.13483 25.1366
0.828055 -2.12867 25.0891
0.858152 -2.12736 25.0646
0.888988 -2.12459 25.0354
0.919042 -2.12236 25.0043
0.948942 -2.12108 24.9798
0.977935 -2.1222 24.9667
1.0085 -2.11946 24.9377
1.04008 -2.11882 24.9335
1.07288 -2.11699 24.9308
1.10368 -2.1183 24.9349
1.13253 -2.11944 24.9217
1.1655 -2.11853 24.9271
1.19805 -2.11911 24.9398
1.22959 -2.12225 24.9622
1.26328 -2.1207 24.9683
1.29247 -2.12556 24.9838
1.32647 -2.12625 25.0072
1.35832 -2.12926 25.0295
1.39061 -2.1327 25.0577
1.42761 -2.13618 25.1207
1.46627 -2.14886 25.2553
0.0384417 -2.23499 26.7063
0.0683729 -2.23971 26.7113
0.098626 -2.2434 26.7088
0.275309 -2.23289 26.6963
0.307231 -2.22731 26.6192
0.341602 -2.22727 26.6277
0.375169 -2.22884 26.6428
0.405145 -2.23786 26.6904
0.573357 -2.09502 25.0613
0.605878 -2.09526 25.0723
0.635142 -2.10079 25.0975
0.671038 -2.09823 25.1161
0.700845 -2.10021 25.115
0.733091 -2.09974 25.116
0.765896 -2.09997 25.1283
0.796616 -2.10084 25.1262
0.826756 -2.09873 25.0945
0.857848 -2.0967 25.0727
0.888735 -2.0922 25.0298
0.917762 -2.09252 25.0096
0.948665 -2.09051 24.988
0.978441 -2.08844 24.9566
1.00814 -2.08638 24.9252
1.03837 -2.08652 24.9158
1.0718 -2.08578 24.9267
1.1041 -2.08551 24.9315
1.13294 -2.08667 24.9183
1.16318 -2.08694 24.9104
1.19772 -2.08714 24.9365
1.22707 -2.08898 24.9326
1.26037 -2.08798 24.9398
1.29209 -2.09094 24.9622
1.32372 -2.09407 24.9845
1.35644 -2.09709 25.0142
1.39095 -2.09781 25.0411
1.42543 -2.10175 25.0889
1.46085 -2.10986 25.1706
1.49844 -2.12126 25.2883
0.604906 -2.06398 25.0689
0.633308 -2.06343 25.0318
0.666361 -2.06723 25.0795
0.701479 -2.06625 25.1045
0.730767 -2.06739 25.0914
0.763267 -2.06709 25.0966
0.795825 -2.06777 25.1105
0.826445 -2.06801 25.1026
0.856559 -2.06677 25.078
0.887502 -2.06314 25.0422
0.917478 -2.06191 25.0177
0.947395 -2.06069 24.9932
0.978101 -2.05708 24.9576
1.00788 -2.05587 24.9333
1.03678 -2.05703 24.9202
1.07149 -2.05509 24.9328
1.10387 -2.055 24.9397
1.13271 -2.05618 24.9265
1.16286 -2.05501 24.907
1.19537 -2.05699 24.9299
1.22776 -2.05692 24.9367
1.2593 -2.05743 24.9407
1.29175 -2.05895 24.9589
1.32247 -2.05981 24.9587
1.3575 -2.06157 24.9979
1.38942 -2.06614 25.0318
1.42268 -2.06836 25.0594
1.45324 -2.07386 25.0879
1.49607 -2.08268 25.2293
0.662168 -2.03716 25.0549
0.699417 -2.034 25.0822
0.731259 -2.0344 25.0876
0.761146 -2.03548 25.0798
0.794455 -2.03537 25.0944
0.826918 -2.03502 25.0989
0.856219 -2.03527 25.079
0.886221 -2.03325 25.0474
0.916261 -2.03286 25.03
0.947921 -2.02692 24.983
0.976839 -2.02729 24.9629
1.00671 -2.02691 24.9456
1.03821 -2.02596 24.9382
1.07024 -2.02232 24.915
1.10276 -2.02205 24.922
1.13293 -2.0209 24.9026
1.16171 -2.0221 24.8894
1.19638 -2.02113 24.9088
1.22729 -2.02389 24.9244
1.25766 -2.02429 24.9185
1.29007 -2.02677 24.9435
1.32235 -2.02647 24.9476
1.35414 -2.03007 24.9749
1.38896 -2.03152 25.0102
1.42199 -2.0341 25.0388
1.45698 -2.03981 25.1029
1.49225 -2.04628 25.173
1.53028 -2.05909 25.3043
0.71156 -1.9971 25.1584
0.738878 -1.99502 25.097
0.762273 -2.00241 25.0814
0.794604 -2.00187 25.0831
0.826656 -2.00177 25.0861
0.85584 -2.00296 25.0729
0.887332 -2.00167 25.0608
0.915435 -2.00432 25.0502
0.946721 -1.99789 24.9953
0.976577 -1.99672 24.9709
1.00695 -1.99701 24.9631
1.03738 -1.99604 24.946
1.07081 -1.98946 24.9119
1.10245 -1.99011 24.9185
1.13271 -1.99041 24.9106
1.1615 -1.99162 24.8975
1.19459 -1.99138 24.9093
1.22623 -1.99204 24.9158
1.25643 -1.99236 24.9078
1.2903 -1.99293 24.9313
1.32183 -1.99345 24.9354
1.35234 -2.00026 24.9755
1.38636 -2.00085 24.999
1.42044 -2.00145 25.0225
1.45387 -2.00616 25.0685
1.48849 -2.01359 25.1411
1.52702 -2.02496 25.2679
0.798189 -1.97145 25.1314
0.828364 -1.9703 25.1068
0.857568 -1.97151 25.0936
0.888775 -1.97197 25.0931
0.914997 -1.97628 25.0785
0.947105 -1.96744 25.0105
0.977464 -1.96695 24.9957
1.00955 -1.96385 24.9757
1.0424 -1.95993 24.9564
1.07246 -1.95992 24.9438
1.10276 -1.96023 24.936
1.13159 -1.96146 24.9229
1.16129 -1.96114 24.9055
1.19133 -1.96317 24.909
1.22408 -1.96252 24.9149
1.25537 -1.96341 24.9201
1.28851 -1.96317 24.9318
1.32167 -1.96292 24.9436
1.35378 -1.96462 24.9604
1.38597 -1.9679 24.9888
1.41784 -1.97078 25.0113
1.4511 -1.97292 25.0389
1.48586 -1.97998 25.1109
1.52535 -1.98608 25.2109
1.5606 -1.99626 25.3045
0.0312807 -2.06147 26.5608
0.763133 -1.94936 25.1864
0.791062 -1.94846 25.1409
0.863517 -1.94162 25.1683
0.89162 -1.94126 25.1308
0.920522 -1.93858 25.0821
0.951369 -1.93513 25.0464
0.978351 -1.93713 25.0205
1.01196 -1.9306 24.9862
1.04174 -1.92951 24.9619
1.07132 -1.93091 24.956
1.10163 -1.93124 24.9482
1.13138 -1.93093 24.9309
1.16007 -1.9314 24.9107
1.19322 -1.92803 24.8996
1.2262 -1.92854 24.9164
1.25577 -1.9298 24.9101
1.28792 -1.93057 24.9214
1.32013 -1.93341 24.948
1.35083 -1.93427 24.9478
1.38333 -1.93573 24.9661
1.41867 -1.93584 24.9967
1.44947 -1.9432 25.0419
1.48541 -1.94425 25.0824
1.52196 -1.95162 25.1698
1.56176 -1.96298 25.3068
0.00183616 -2.02494 26.5842
0.0367136 -2.02414 26.5936
0.0993552 -1.94943 25.6243
0.127345 -1.95428 25.6241
0.163072 -1.94771 25.5919
0.19862 -1.94265 25.5757
0.226617 -1.94943 25.5987
0.260289 -1.94904 25.6119
0.293381 -1.94706 25.5998
0.353557 -1.94946 25.5727
0.55689 -1.9314 25.5029
0.61183 -1.9312 25.4006
0.635846 -1.93596 25.3599
0.695145 -1.93238 25.2791
0.731628 -1.92267 25.2381
0.763491 -1.91877 25.2034
0.796102 -1.91789 25.2036
0.827834 -1.91839 25.2073
0.85934 -1.91547 25.1792
0.8895 -1.91437 25.1545
0.92136 -1.90862 25.1072
0.951837 -1.9047 25.0633
0.981506 -1.90218 25.0244
1.01288 -1.90076 25.011
1.04268 -1.8997 24.9867
1.07161 -1.90096 24.9735
1.10141 -1.90067 24.9562
1.13094 -1.89886 24.9249
1.161 -1.8988 24.9123
1.19325 -1.89714 24.9066
1.2255 -1.89699 24.9123
1.2553 -1.89775 24.9043
1.28766 -1.89765 24.9111
1.32025 -1.89952 24.9341
1.35049 -1.90234 24.9445
1.38151 -1.90505 24.96
1.41626 -1.90475 24.9836
1.45048 -1.90775 25.0255
1.48253 -1.91215 25.0595
1.5178 -1.91828 25.1296
1.55561 -1.92806 25.2424
1.59514 -1.93968 25.3783
0.00389805 -1.99113 26.6144
0.0366034 -1.98096 26.4719
0.0951097 -1.91997 25.6033
0.133846 -1.90738 25.5385
0.165209 -1.90621 25.5134
0.195291 -1.90742 25.5002
0.227959 -1.90742 25.5067
0.262104 -1.90584 25.514
0.293934 -1.91175 25.5759
0.324953 -1.91534 25.6002
0.355369 -1.91735 25.5992
0.522428 -1.91207 25.6096
0.577684 -1.90619 25.4493
0.608372 -1.90242 25.3973
0.644306 -1.89522 25.3704
0.6996 -1.89154 25.2456
0.732217 -1.88805 25.2215
0.762783 -1.88806 25.2088
0.796089 -1.88617 25.2069
0.828899 -1.88404 25.1981
0.85897 -1.88308 25.173
0.889554 -1.8833 25.1635
0.922305 -1.87528 25.1047
0.950643 -1.87554 25.0755
0.984774 -1.86959 25.049
1.01164 -1.87089 25.0162
1.04153 -1.87062 24.9988
1.07048 -1.8719 24.9857
1.10018 -1.87087 24.9613
1.13221 -1.86616 24.9289
1.16102 -1.86744 24.9158
1.1941 -1.86623 24.9205
1.22638 -1.86595 24.9255
1.25512 -1.86724 24.9123
1.2874 -1.86697 24.9172
1.31992 -1.86761 24.9307
1.34922 -1.86951 24.9268
1.38335 -1.87048 24.9553
1.41591 -1.87279 24.9802
1.44778 -1.8756 25.0027
1.48368 -1.87916 25.0616
1.52053 -1.88284 25.1276
1.55547 -1.88943 25.1975
1.59481 -1.89928 25.3216
1.63102 -1.90685 25.4045
1.66708 -1.91133 25.4641
0.0364608 -1.95708 26.5967
0.0651057 -1.88551 25.6117
0.100424 -1.87726 25.5507
0.131391 -1.87459 25.5005
0.164859 -1.87277 25.4963
0.196197 -1.87304 25.4887
0.227518 -1.8733 25.4811
0.260331 -1.87383 25.496
0.292223 -1.87502 25.5063
0.32599 -1.87659 25.5438
0.357182 -1.88517 25.6258
0.390581 -1.884 25.6262
0.488566 -1.88525 25.6512
0.51806 -1.88548 25.6207
0.578398 -1.8719 25.4384
0.609996 -1.86814 25.3961
0.644526 -1.8614 25.3581
0.6696 -1.86329 25.3024
0.700115 -1.85839 25.2416
0.731508 -1.85757 25.2292
0.763248 -1.85449 25.2001
0.795949 -1.85218 25.1885
0.82939 -1.85096 25.1942
0.860407 -1.84849 25.1648
0.889742 -1.8489 25.1449
0.920708 -1.84556 25.1089
0.94985 -1.84685 25.0957
0.978553 -1.84764 25.0744
1.01181 -1.84073 25.0321
1.04038 -1.84152 25.011
1.06934 -1.84282 24.9978
1.10055 -1.83649 24.9441
1.12951 -1.83854 24.9379
1.1634 -1.83594 24.9388
1.19508 -1.83657 24.9455
1.22532 -1.83694 24.9376
1.25407 -1.83824 24.9244
1.28637 -1.83797 24.9293
1.31889 -1.83859 24.9429
1.34907 -1.83897 24.9349
1.38225 -1.83869 24.9467
1.41459 -1.83994 24.9626
1.44673 -1.845 25.0036
1.48325 -1.84619 25.0513
1.51695 -1.8505 25.0977
1.54916 -1.85484 25.1318
1.58322 -1.86072 25.1898
1.62116 -1.86697 25.2789
1.65817 -1.87603 25.3781
1.69392 -1.87923 25.4271
0.0354481 -1.84824 25.588
0.0653064 -1.84797 25.5495
0.0953822 -1.84681 25.5041
0.130864 -1.84181 25.4882
0.164821 -1.83929 25.4822
0.196833 -1.83957 25.4842
0.226859 -1.84082 25.471
0.260287 -1.84105 25.4908
0.293894 -1.83997 25.4974
0.323762 -1.8429 25.5017
0.356358 -1.84686 25.5515
0.389443 -1.84763 25.5705
0.420687 -1.85386 25.6258
0.451839 -1.85277 25.6004
0.484019 -1.85553 25.6278
0.522574 -1.84495 25.5909
0.58148 -1.83511 25.4285
0.610602 -1.83493 25.3939
0.667489 -1.83148 25.2832
0.700635 -1.82526 25.2375
0.73033 -1.82481 25.2107
0.761834 -1.82285 25.1895
0.797908 -1.81765 25.1858
0.829993 -1.81703 25.1835
0.860145 -1.81527 25.1517
0.890317 -1.81503 25.1343
0.919505 -1.81633 25.1211
0.948661 -1.81763 25.1078
0.978712 -1.8174 25.0904
1.01099 -1.81197 25.0506
1.03966 -1.81289 25.031
1.06821 -1.81371 25.0099
1.10592 -1.80572 25.001
1.13344 -1.80644 24.9706
1.16517 -1.8062 24.9708
1.19545 -1.80658 24.9629
1.22425 -1.8079 24.9497
1.25448 -1.80828 24.9418
1.2878 -1.8072 24.9493
1.32021 -1.80709 24.9562
1.35002 -1.80789 24.948
1.38213 -1.80962 24.9659
1.41447 -1.80935 24.9707
1.44746 -1.81075 24.9926
1.48099 -1.81448 25.035
1.51489 -1.81694 25.0705
1.54877 -1.82092 25.1158
1.58533 -1.82557 25.1855
1.62082 -1.8303 25.2463
1.65682 -1.83689 25.3223
1.69321 -1.84429 25.4051
1.72802 -1.8448 25.429
0.0631576 -1.816 25.5238
0.0960441 -1.81332 25.4995
0.13023 -1.8087 25.4697
0.164287 -1.80569 25.4594
0.196062 -1.80649 25.4648
0.226954 -1.8072 25.457
0.261247 -1.80606 25.4728
0.293045 -1.80687 25.4781
0.323911 -1.80759 25.4702
0.356601 -1.81113 25.5175
0.388842 -1.8135 25.5449
0.422043 -1.81587 25.5831
0.452622 -1.81831 25.5891
0.486091 -1.81741 25.5938
0.521978 -1.81233 25.5832
0.548546 -1.80772 25.4697
0.578861 -1.80446 25.4158
0.611138 -1.80251 25.3988
0.638489 -1.797 25.2924
0.669003 -1.79675 25.2748
0.700461 -1.79196 25.2242
0.730846 -1.79172 25.2067
0.766209 -1.78692 25.199
0.799164 -1.78461 25.1896
0.8306 -1.78312 25.1728
0.857641 -1.78156 25.1112
0.887701 -1.78672 25.141
0.919243 -1.78554 25.1289
0.949133 -1.78469 25.104
0.978389 -1.7843 25.0774
1.012 -1.78159 25.0731
1.0444 -1.78074 25.0733
1.07554 -1.78123 25.0728
1.10819 -1.77397 25.0225
1.13665 -1.77483 25.0014
1.16553 -1.77616 24.9882
1.19438 -1.7775 24.975
1.22465 -1.77789 24.9671
1.25637 -1.77852 24.9738
1.29028 -1.77594 24.9746
1.31903 -1.77728 24.9614
1.34909 -1.77814 24.9557
1.38099 -1.77981 24.9715
1.41348 -1.78028 24.983
1.44674 -1.77998 24.9948
1.47917 -1.78121 25.0108
1.51075 -1.78761 25.0563
1.54975 -1.78724 25.112
1.58249 -1.79192 25.1528
1.61622 -1.7955 25.1928
1.6494 -1.80144 25.2439
1.68844 -1.80777 25.3411
1.72962 -1.81442 25.4549
0.0615484 -1.78405 25.5054
0.0972925 -1.77995 25.5046
0.131293 -1.77476 25.4643
0.165187 -1.7744 25.4854
0.196506 -1.77469 25.4778
0.22652 -1.77598 25.4647
0.259432 -1.77556 25.4706
0.292231 -1.77605 25.4856
0.332963 -1.76487 25.4654
0.360153 -1.77308 25.498
0.398491 -1.76735 25.5108
0.426513 -1.77358 25.5294
0.455618 -1.77924 25.5542
0.485947 -1.78128 25.5533
0.517785 -1.77474 25.4793
0.550848 -1.76789 25.4185
0.579646 -1.76902 25.3926
0.607588 -1.76622 25.3178
0.639029 -1.76382 25.2882
0.66885 -1.76343 25.2614
0.700145 -1.76103 25.2319
0.730538 -1.76081 25.2144
0.76362 -1.75718 25.1935
0.793112 -1.75731 25.1709
0.822281 -1.75569 25.1292
0.852379 -1.75402 25.0976
0.884935 -1.75279 25.0956
0.918288 -1.75255 25.1105
0.94883 -1.75159 25.0909
0.980276 -1.75044 25.0789
1.01152 -1.75166 25.0856
1.0439 -1.75223 25.0975
1.07532 -1.7505 25.0807
1.10572 -1.74587 25.0309
1.13555 -1.74569 25.0135
1.16526 -1.74333 24.9775
1.19482 -1.74391 24.9647
1.22434 -1.74596 24.9634
1.25752 -1.74858 24.9986
1.28631 -1.74994 24.9853
1.31801 -1.74821 24.9735
1.35123 -1.74788 24.9855
1.38378 -1.74981 25.0086
1.414 -1.75023 25.0005
1.44666 -1.75083 25.014
1.48057 -1.7496 25.0242
1.51487 -1.75312 25.0713
1.54709 -1.75659 25.1006
1.58057 -1.75854 25.1285
1.61432 -1.76392 25.1818
1.65313 -1.76557 25.2476
1.68806 -1.77169 25.3128
1.72643 -1.78035 25.4199
1.76518 -1.78372 25.4927
0.0651342 -1.74728 25.5003
0.0981281 -1.74514 25.4845
0.131449 -1.74419 25.4896
0.164774 -1.74324 25.4946
0.196068 -1.74345 25.4854
0.226983 -1.74418 25.4777
0.266977 -1.73602 25.4841
0.295597 -1.73951 25.4802
0.32534 -1.74103 25.467
0.358147 -1.74219 25.4897
0.389165 -1.74576 25.5166
0.447484 -1.72805 25.2448
0.477074 -1.72936 25.2318
0.507423 -1.73207 25.2434
0.541401 -1.73548 25.305
0.574597 -1.73526 25.3179
0.605988 -1.73143 25.2723
0.637931 -1.73105 25.2694
0.671231 -1.7266 25.2409
0.700817 -1.7271 25.221
0.730356 -1.72759 25.2011
0.763742 -1.72472 25.1907
0.791861 -1.72797 25.183
0.822865 -1.72116 25.1113
0.852029 -1.72178 25.0911
0.882514 -1.72206 25.0818
0.918036 -1.72044 25.1065
0.948581 -1.72082 25.0987
0.97769 -1.72218 25.0856
1.01157 -1.72249 25.11
1.0433 -1.72295 25.1145
1.07496 -1.71746 25.0678
1.10507 -1.71471 25.0307
1.13309 -1.71517 25.0016
1.16212 -1.71153 24.9489
1.19527 -1.71033 24.9544
1.22693 -1.71445 24.9889
1.25574 -1.71583 24.9757
1.28749 -1.71996 25.01
1.31833 -1.71859 24.9932
1.35118 -1.7184 25.003
1.38347 -1.71843 25.0096
1.41527 -1.71965 25.0208
1.44789 -1.72098 25.0392
1.48183 -1.71974 25.0495
1.51412 -1.72145 25.0673
1.54765 -1.72581 25.1137
1.58203 -1.72679 25.1422
1.61668 -1.72955 25.1845
1.6491 -1.73376 25.2188
1.68397 -1.73981 25.2838
1.72135 -1.74494 25.3607
1.75702 -1.75405 25.4497
0.0991747 -1.71109 25.4769
0.133297 -1.71266 25.5282
0.163246 -1.71351 25.5067
0.194699 -1.713 25.4901
0.242137 -1.69746 25.5067
0.265317 -1.70518 25.4813
0.295283 -1.70651 25.4682
0.325219 -1.70783 25.455
0.445361 -1.69725 25.2321
0.478242 -1.69611 25.2329
0.506055 -1.70264 25.2553
0.538965 -1.7015 25.2559
0.572866 -1.69884 25.2523
0.603881 -1.69789 25.2327
0.634826 -1.69766 25.2203
0.66867 -1.69429 25.2094
0.701493 -1.69318 25.21
0.730882 -1.69454 25.1969
0.764682 -1.69299 25.2038
0.79543 -1.69099 25.1735
0.823634 -1.69099 25.1361
0.851759 -1.691 25.0988
0.886745 -1.68936 25.1181
0.91993 -1.68654 25.1079
0.947401 -1.69156 25.1107
0.977941 -1.69195 25.103
1.01057 -1.69248 25.1171
1.044 -1.69063 25.1181
1.07585 -1.68504 25.0719
1.1044 -1.68597 25.0508
1.13786 -1.67979 25.0165
1.16398 -1.6785 24.9557
1.19152 -1.67999 24.9317
1.22376 -1.67896 24.9306
1.25795 -1.68391 24.9945
1.2909 -1.68905 25.0475
1.32368 -1.68825 25.0517
1.35249 -1.68965 25.0383
1.38327 -1.68996 25.0336
1.41662 -1.69059 25.0533
1.44843 -1.69083 25.0568
1.48178 -1.6905 25.0688
1.51515 -1.69017 25.0807
1.54852 -1.69307 25.1155
1.58112 -1.6975 25.1546
1.61403 -1.6981 25.1681
1.64864 -1.70272 25.2229
1.68893 -1.70668 25.3164
1.72458 -1.71242 25.3844
1.76276 -1.72175 25.4949
0.129203 -1.68268 25.4984
0.164118 -1.679 25.4908
0.197363 -1.67781 25.4917
0.235086 -1.67335 25.5136
0.2649 -1.67392 25.4889
0.293812 -1.6768 25.4803
0.409508 -1.6689 25.2221
0.443974 -1.66539 25.2162
0.503903 -1.67184 25.2425
0.539586 -1.66733 25.2406
0.572779 -1.6656 25.2386
0.603169 -1.66483 25.2136
0.633615 -1.66467 25.1963
0.666432 -1.66355 25.1969
0.700545 -1.66105 25.1982
0.731413 -1.66151 25.1927
0.764854 -1.66024 25.1986
0.821326 -1.66034 25.1238
0.853376 -1.65682 25.0944
0.885209 -1.65641 25.0925
0.946223 -1.66227 25.1227
0.979516 -1.66186 25.1352
1.01282 -1.66145 25.1477
1.04277 -1.66063 25.1231
1.07266 -1.6598 25.0985
1.10373 -1.6572 25.0708
1.1318 -1.65772 25.0415
1.1629 -1.64938 24.9676
1.19019 -1.64807 24.9178
1.22842 -1.6444 24.95
1.26246 -1.65016 25.0196
1.2928 -1.65558 25.0519
1.32318 -1.65948 25.0718
1.3535 -1.65992 25.0638
1.38534 -1.66054 25.0704
1.41869 -1.66019 25.0825
1.44898 -1.66064 25.0744
1.48173 -1.66121 25.0881
1.51574 -1.65995 25.0984
1.55031 -1.66157 25.1339
1.58253 -1.66672 25.1751
1.61541 -1.66804 25.1936
1.64699 -1.6721 25.2206
1.68769 -1.67427 25.3056
1.72414 -1.68117 25.3887
1.7608 -1.68812 25.472
0.198805 -1.64488 25.5051
0.232323 -1.64436 25.5186
0.354006 -1.63513 25.3111
0.388691 -1.62843 25.268
0.472941 -1.64102 25.2674
0.5084 -1.63607 25.2573
0.543822 -1.63113 25.2472
0.575255 -1.62888 25.2179
0.604728 -1.63026 25.2049
0.634329 -1.63082 25.1852
0.66536 -1.63046 25.173
0.697782 -1.62996 25.1758
0.731241 -1.62836 25.1792
0.763782 -1.62764 25.1808
0.821025 -1.62881 25.1243
0.85437 -1.62257 25.0826
0.888783 -1.62286 25.1147
0.915865 -1.63155 25.1478
0.94646 -1.63197 25.1401
0.981089 -1.6317 25.1675
1.0126 -1.63061 25.1555
1.04164 -1.63132 25.1351
1.07579 -1.62869 25.1362
1.13116 -1.62894 25.0615
1.18897 -1.61723 24.9136
1.22607 -1.61469 24.9451
1.29767 -1.62126 25.0763
1.32528 -1.62486 25.0689
1.35474 -1.62921 25.084
1.38888 -1.62949 25.1082
1.41922 -1.62995 25.1001
1.452 -1.6305 25.1138
1.48603 -1.62923 25.1242
1.51887 -1.62979 25.1378
1.5508 -1.63173 25.1539
1.58192 -1.63684 25.1861
1.61991 -1.63595 25.2301
1.65218 -1.64446 25.2943
1.68589 -1.64413 25.3062
1.7297 -1.64822 25.4283
1.7646 -1.65643 25.507
0.320704 -1.60908 25.3676
0.352795 -1.606 25.3312
0.441922 -1.61014 25.2922
0.475051 -1.6066 25.2674
0.511039 -1.6012 25.259
0.542959 -1.59898 25.2351
0.575178 -1.59572 25.2042
0.604633 -1.59711 25.1913
0.635047 -1.597 25.174
0.664433 -1.5984 25.161
0.697681 -1.59792 25.1739
0.730949 -1.59745 25.1868
0.760288 -1.59886 25.1737
0.79098 -1.59927 25.1661
0.916086 -1.6012 25.1652
0.948764 -1.60168 25.1795
0.982277 -1.59982 25.1807
1.01137 -1.60055 25.1603
1.04347 -1.60191 25.1761
1.07892 -1.59749 25.174
1.11043 -1.59233 25.1266
1.13142 -1.60097 25.0975
1.1901 -1.58581 24.9265
1.22772 -1.58226 24.9545
1.26333 -1.59806 25.1228
1.29176 -1.59909 25.1013
1.32705 -1.59473 25.099
1.36044 -1.59515 25.1179
1.39006 -1.59644 25.1099
1.4222 -1.59974 25.1395
1.45626 -1.59845 25.15
1.48912 -1.59899 25.1637
1.52226 -1.59913 25.1767
1.55142 -1.60441 25.1941
1.58474 -1.60716 25.2269
1.62056 -1.60689 25.2577
1.65656 -1.61269 25.333
1.69569 -1.6116 25.3828
1.73131 -1.61768 25.4541
0.287064 -1.5825 25.4159
0.320532 -1.57655 25.3603
0.388356 -1.57396 25.3826
0.408975 -1.58428 25.3526
0.44298 -1.57661 25.289
0.47638 -1.57222 25.2577
0.511766 -1.56679 25.2409
0.542845 -1.56563 25.2185
0.573509 -1.56578 25.2062
0.604314 -1.56618 25.1987
0.634736 -1.56609 25.1815
0.664129 -1.56751 25.1685
0.697587 -1.56589 25.1719
0.729997 -1.5654 25.1748
0.760822 -1.56588 25.1694
0.791058 -1.56747 25.1686
0.82663 -1.56701 25.2069
0.854976 -1.56996 25.198
0.885654 -1.57038 25.1903
0.91923 -1.56919 25.1984
0.952628 -1.5669 25.1941
0.981903 -1.56754 25.1742
1.01107 -1.56899 25.1609
1.04317 -1.57134 25.1859
1.07851 -1.56523 25.1675
1.10954 -1.56144 25.127
1.13349 -1.56292 25.0644
1.19029 -1.55457 24.9321
1.22738 -1.54979 24.9451
1.26229 -1.56874 25.1348
1.29569 -1.56833 25.1471
1.32859 -1.56751 25.1513
1.35646 -1.56816 25.1218
1.39602 -1.56713 25.1838
1.42492 -1.56862 25.1703
1.45799 -1.56868 25.1822
1.52123 -1.57499 25.2276
1.55341 -1.57713 25.2467
1.5902 -1.57551 25.276
1.62303 -1.57665 25.2922
1.66252 -1.58079 25.3843
0.351884 -1.55049 25.4296
0.386942 -1.54431 25.3945
0.418255 -1.54012 25.3332
0.44722 -1.54032 25.2955
0.477077 -1.53947 25.2583
0.510752 -1.5344 25.2232
0.54214 -1.53485 25.2233
0.573243 -1.53491 25.2152
0.604888 -1.53317 25.1942
0.634631 -1.53301 25.1677
0.664007 -1.53445 25.1548
0.697441 -1.53213 25.1508
0.730351 -1.53198 25.1635
0.760645 -1.53283 25.1558
0.793674 -1.53271 25.1697
0.825765 -1.5341 25.1879
0.855493 -1.53696 25.1938
0.885599 -1.53752 25.1811
0.919733 -1.53594 25.1917
0.952343 -1.53382 25.1807
0.981531 -1.53528 25.1676
1.01203 -1.53565 25.1582
1.04396 -1.53741 25.1763
1.0799 -1.53079 25.1592
1.13221 -1.52856 25.0295
1.15877 -1.52717 24.9687
1.18973 -1.52261 24.9244
1.22907 -1.51847 24.9645
1.26322 -1.53731 25.1479
1.29764 -1.53807 25.1795
1.32959 -1.53755 25.177
1.36243 -1.53804 25.1909
1.39503 -1.53773 25.196
1.42546 -1.53823 25.188
1.46147 -1.538 25.2234
1.4899 -1.54561 25.2528
1.52964 -1.53932 25.2723
1.5624 -1.54068 25.2905
1.59884 -1.5422 25.3402
1.62963 -1.55019 25.3897
0.351106 -1.52199 25.4665
0.38192 -1.51663 25.3799
0.419568 -1.50694 25.3382
0.445841 -1.51075 25.3072
0.478395 -1.50639 25.2632
0.511262 -1.50393 25.2479
0.542188 -1.50368 25.2333
0.573362 -1.50165 25.2019
0.604804 -1.5001 25.1804
0.635201 -1.50005 25.1632
0.664569 -1.5015 25.1503
0.697105 -1.5011 25.1561
0.729677 -1.50149 25.1708
0.760369 -1.50193 25.1633
0.792927 -1.50154 25.169
0.825552 -1.50195 25.1836
0.855264 -1.50389 25.1802
0.885842 -1.50427 25.171
0.921474 -1.50244 25.1961
0.952112 -1.5029 25.1884
0.981308 -1.50438 25.1752
1.08047 -1.49628 25.1417
1.13176 -1.49338 24.995
1.15906 -1.49354 24.9546
1.1949 -1.48793 24.9486
1.22269 -1.49046 24.9351
1.26859 -1.50574 25.2024
1.2981 -1.50765 25.1971
1.33159 -1.50722 25.2094
1.36509 -1.50679 25.2218
1.39565 -1.50951 25.2325
1.47096 -1.50399 25.2925
1.49702 -1.51135 25.2987
1.52578 -1.51536 25.3024
0.386165 -1.48138 25.4016
0.418412 -1.4777 25.3582
0.450832 -1.47299 25.3058
0.477034 -1.47685 25.2749
0.509913 -1.47441 25.2596
0.542203 -1.47191 25.236
0.574046 -1.46919 25.2049
0.604495 -1.46916 25.1878
0.633908 -1.47063 25.1749
0.664649 -1.47106 25.1675
0.697224 -1.47144 25.1822
0.729791 -1.47104 25.188
0.759127 -1.47251 25.175
0.791697 -1.47212 25.1807
0.824334 -1.47251 25.1954
0.855013 -1.47297 25.1878
0.887604 -1.47258 25.1934
0.920294 -1.47299 25.2079
0.951884 -1.47197 25.196
0.981804 -1.47144 25.171
1.01096 -1.47294 25.1578
1.04394 -1.47129 25.1557
1.07674 -1.46459 25.1052
1.10266 -1.46342 25.0358
1.13148 -1.46203 24.9955
1.15967 -1.46258 24.9672
1.19432 -1.45877 24.9652
1.23458 -1.47714 25.2101
1.26806 -1.47668 25.2226
1.30071 -1.47635 25.2279
1.33509 -1.47579 25.2474
1.3641 -1.47733 25.2339
1.39788 -1.48239 25.2933
1.43006 -1.48409 25.3095
0.414005 -1.44997 25.3509
0.45007 -1.44305 25.3219
0.480816 -1.44237 25.2973
0.510428 -1.44385 25.2844
0.543185 -1.43888 25.2367
0.573732 -1.43822 25.2123
0.60319 -1.4397 25.1994
0.632617 -1.44118 25.1865
0.663371 -1.44163 25.1791
0.695958 -1.44199 25.1939
0.728537 -1.44158 25.1997
0.759265 -1.44204 25.1922
0.791907 -1.44241 25.2069
0.824508 -1.44201 25.2126
0.855209 -1.44248 25.205
0.887904 -1.44287 25.2196
0.920526 -1.44249 25.2253
0.951531 -1.43972 25.1892
1.01158 -1.43848 25.1402
1.04229 -1.4365 25.1111
1.07144 -1.43649 25.0846
1.10156 -1.43414 25.0476
1.13164 -1.43105 25.004
1.16298 -1.42907 24.9846
1.19228 -1.43097 24.9795
1.23438 -1.44756 25.2293
1.26702 -1.44721 25.2347
1.3014 -1.44662 25.2543
1.3371 -1.44495 25.2769
1.40399 -1.45186 25.3633
0.415636 -1.41837 25.3817
0.448698 -1.41343 25.3336
0.479458 -1.41278 25.309
0.510159 -1.41213 25.2844
0.541904 -1.40871 25.2411
0.572417 -1.40872 25.2239
0.601888 -1.41022 25.211
0.632682 -1.41067 25.2036
0.6646 -1.41115 25.2112
0.697573 -1.41023 25.2162
0.728262 -1.41062 25.2071
0.758605 -1.41151 25.1994
0.790695 -1.41228 25.2118
0.823294 -1.41253 25.2244
0.854008 -1.41301 25.2168
0.886716 -1.41338 25.2314
0.951244 -1.40813 25.1896
0.981298 -1.40754 25.1651
1.01208 -1.40559 25.1359
1.04197 -1.4036 25.0977
1.07283 -1.40219 25.0762
1.10333 -1.39887 25.0335
1.13304 -1.3983 25.0092
1.16238 -1.40021 25.0042
1.20423 -1.4165 25.2548
1.2369 -1.41615 25.2602
1.27045 -1.41567 25.2727
1.304 -1.4152 25.2852
1.33462 -1.41788 25.2961
1.37246 -1.4204 25.3739
1.40672 -1.42032 25.3945
0.414487 -1.38904 25.4016
0.443285 -1.3891 25.3553
0.478104 -1.38316 25.3206
0.507481 -1.38431 25.2994
0.541861 -1.37804 25.2566
0.571104 -1.3792 25.2355
0.601938 -1.37966 25.2281
0.633879 -1.38013 25.2358
0.665829 -1.38061 25.2434
0.696308 -1.38072 25.2278
0.725707 -1.38225 25.2148
0.760008 -1.38063 25.2284
0.79272 -1.38148 25.2492
0.822082 -1.38302 25.2361
0.854726 -1.38261 25.2418
0.91959 -1.38241 25.2544
0.981373 -1.37917 25.2012
1.00807 -1.37858 25.1394
1.07038 -1.37397 25.084
1.0985 -1.37481 25.0549
1.17912 -1.37921 25.2762
1.20625 -1.38468 25.2775
1.24029 -1.38454 25.2982
1.27387 -1.38404 25.3109
1.30349 -1.386 25.3055
1.37506 -1.39008 25.415
0.35308 -1.36486 25.5551
0.386604 -1.35775 25.4776
0.419464 -1.35361 25.4331
0.445592 -1.35729 25.3934
0.477005 -1.35387 25.3405
0.506404 -1.35505 25.3192
0.544021 -1.34599 25.2861
0.571685 -1.34859 25.2601
0.603102 -1.34906 25.2603
0.635076 -1.34952 25.268
0.665915 -1.35 25.2606
0.695368 -1.35154 25.2476
0.728017 -1.35111 25.2535
0.76209 -1.35038 25.274
0.791497 -1.35193 25.2609
0.887676 -1.35236 25.2738
0.921124 -1.3518 25.2868
0.954191 -1.3509 25.2916
1.14178 -1.34807 25.2265
1.17342 -1.34886 25.2323
1.20719 -1.352 25.2815
1.24009 -1.3548 25.3175
1.27334 -1.35479 25.3311
1.30654 -1.35924 25.383
1.3479 -1.35724 25.4577
0.384138 -1.33144 25.5218
0.418789 -1.32485 25.4699
0.453798 -1.31898 25.4348
0.482556 -1.31917 25.3884
0.511734 -1.32004 25.3588
0.546737 -1.31454 25.3323
0.576055 -1.31576 25.3111
0.605616 -1.31731 25.2982
0.635146 -1.31887 25.2852
0.760856 -1.32079 25.2856
0.79175 -1.32077 25.2733
0.824418 -1.32161 25.2929
0.856009 -1.32018 25.2741
0.890587 -1.32062 25.3118
0.985802 -1.31451 25.2442
1.01545 -1.31644 25.2392
1.04465 -1.31803 25.226
1.07612 -1.31596 25.2022
1.10725 -1.31908 25.2256
1.1407 -1.31854 25.2384
1.17418 -1.31801 25.2511
1.20912 -1.3185 25.2884
1.24264 -1.32319 25.3485
1.27781 -1.32896 25.4335
1.30757 -1.33094 25.428
0.413764 -1.29725 25.4548
0.44702 -1.29626 25.4601
0.481713 -1.29009 25.4167
0.511189 -1.29133 25.3954
0.543014 -1.28871 25.359
0.574746 -1.28611 25.3227
0.606388 -1.28352 25.2865
0.638808 -1.28302 25.2883
0.670414 -1.28442 25.302
0.705133 -1.27712 25.2531
0.732111 -1.28543 25.2872
0.759285 -1.29085 25.289
0.826506 -1.28998 25.3237
0.855926 -1.29158 25.3104
0.925512 -1.28805 25.3429
0.952276 -1.29201 25.3234
0.98507 -1.28527 25.2642
1.01432 -1.28689 25.251
1.04515 -1.28508 25.2216
1.07601 -1.2818 25.1789
1.10892 -1.28527 25.2259
1.14124 -1.2841 25.2206
1.17272 -1.28583 25.2338
1.20663 -1.2879 25.2758
1.24748 -1.29756 25.4593
1.28068 -1.29766 25.4718
0.416033 -1.26518 25.4932
0.445901 -1.26677 25.4801
0.484824 -1.2567 25.447
0.510117 -1.2619 25.4153
0.557064 -1.23794 24.8532
0.58891 -1.23311 24.7992
0.622228 -1.22997 24.7892
0.654082 -1.23084 24.809
0.683438 -1.23042 24.7782
0.758199 -1.2259 25.3039
0.767258 -1.25286 25.3241
0.798263 -1.25504 25.3377
0.836612 -1.24716 25.3289
0.87436 -1.2388 25.3078
0.893733 -1.25802 25.3673
0.928832 -1.25531 25.3765
1.01809 -1.25174 25.2619
1.04115 -1.25798 25.2249
1.07917 -1.2501 25.2166
1.1126 -1.24952 25.2295
1.14173 -1.25116 25.2163
1.17588 -1.25107 25.2414
1.20558 -1.2583 25.2876
1.24199 -1.26998 25.4449
1.28025 -1.26721 25.4843
0.421981 -1.23075 25.5586
0.453036 -1.2268 25.4839
0.464072 -1.21218 24.9463
0.497305 -1.20535 24.8806
0.53008 -1.19965 24.8256
0.560863 -1.19634 24.7747
0.590296 -1.19752 24.7644
0.621682 -1.19553 24.7418
0.650313 -1.19924 24.753
0.684384 -1.19753 24.7721
0.714011 -1.19981 24.7784
0.745276 -1.20042 24.7865
0.775636 -1.20074 24.7792
0.84594 -1.20927 25.3827
0.870271 -1.21888 25.3953
1.07972 -1.22066 25.2482
1.11152 -1.21996 25.2413
1.14212 -1.22053 25.2336
1.17116 -1.22421 25.2393
1.21364 -1.23468 25.4558
1.24692 -1.23307 25.4536
1.27847 -1.23691 25.4839
1.31152 -1.23587 25.4844
0.463426 -1.17616 24.8712
0.501833 -1.16476 24.8233
0.529437 -1.16561 24.779
0.557609 -1.16552 24.7321
0.588331 -1.16545 24.725
0.620494 -1.16322 24.7111
0.650877 -1.16366 24.7063
0.680631 -1.16611 24.718
0.712823 -1.16558 24.7262
0.745373 -1.16504 24.739
0.776844 -1.1681 24.7797
0.807241 -1.17101 24.8032
0.902806 -1.19872 25.5384
0.961694 -1.16951 25.1498
1.00817 -1.18363 25.4825
1.21184 -1.20337 25.4449
1.24739 -1.19985 25.4494
1.2816 -1.20026 25.4762
1.31205 -1.20696 25.5213
0.461838 -1.14378 24.8313
0.495845 -1.13804 24.7939
0.526835 -1.13394 24.733
0.556126 -1.13417 24.7078
0.586884 -1.1325 24.6801
0.617643 -1.13201 24.6691
0.649027 -1.13262 24.6817
0.681884 -1.13129 24.6904
0.711055 -1.13323 24.6878
0.742836 -1.13405 24.7075
0.773845 -1.13614 24.7314
0.808072 -1.13531 24.7627
0.838875 -1.14076 24.8214
0.932139 -1.16844 25.5251
0.962589 -1.16808 25.4999
0.993846 -1.16567 25.4632
1.17934 -1.17153 25.4436
1.21554 -1.16942 25.4693
1.24636 -1.17003 25.4613
1.28014 -1.16944 25.4743
1.311 -1.17457 25.5094
0.433215 -1.1098 24.8366
0.46347 -1.10888 24.8061
0.496786 -1.1026 24.7491
0.526855 -1.10169 24.7189
0.558114 -1.09875 24.68
0.587855 -1.0989 24.6618
0.616666 -1.10052 24.6499
0.646958 -1.10144 24.6512
0.680946 -1.09915 24.6645
0.710443 -1.1014 24.671
0.741572 -1.10198 24.6791
0.774779 -1.10253 24.7154
0.805803 -1.10403 24.7323
0.836888 -1.10611 24.7562
0.869863 -1.10909 24.8146
0.959022 -1.13647 25.4617
0.992709 -1.13582 25.475
1.02218 -1.13753 25.4616
1.14992 -1.13859 25.4665
1.18513 -1.13784 25.4949
1.21598 -1.13846 25.4869
1.24681 -1.13909 25.479
1.28362 -1.13724 25.5129
0.400667 -1.08036 24.8435
0.434177 -1.07615 24.8175
0.466703 -1.07122 24.7651
0.499193 -1.06634 24.7145
0.526855 -1.06852 24.6902
0.557731 -1.06715 24.6676
0.588486 -1.06669 24.6567
0.618269 -1.06691 24.6407
0.646061 -1.06995 24.6329
0.679287 -1.069 24.6531
0.711182 -1.06851 24.6594
0.741267 -1.06905 24.6527
0.77302 -1.06983 24.6724
0.8038 -1.07303 24.7078
0.835315 -1.07409 24.7261
0.867963 -1.07594 24.7682
0.901041 -1.07855 24.8234
0.988118 -1.10364 25.4169
1.02283 -1.10295 25.4432
1.05181 -1.11025 25.4848
1.08622 -1.11001 25.5105
1.13413 -1.12191 25.4402
1.18697 -1.10767 25.5375
1.21762 -1.10618 25.5052
1.24961 -1.10774 25.5193
1.2826 -1.10734 25.525
0.411485 -1.05603 25.7361
0.398904 -1.0495 24.8192
0.436159 -1.04113 24.7943
0.468955 -1.03564 24.737
0.494849 -1.03905 24.7
0.524028 -1.03801 24.6531
0.553486 -1.03848 24.6345
0.587692 -1.03557 24.6442
0.618245 -1.03482 24.6265
0.646994 -1.03647 24.6147
0.679358 -1.03692 24.6415
0.710323 -1.03739 24.647
0.739691 -1.03978 24.6539
0.77084 -1.04008 24.6594
0.803975 -1.03974 24.6844
0.835919 -1.03981 24.6972
0.866803 -1.04298 24.7326
0.897935 -1.045 24.7564
0.976141 -1.06682 25.2092
1.01512 -1.06663 25.2989
1.04673 -1.07212 25.3563
1.08183 -1.06808 25.3516
1.12124 -1.07581 25.5248
0.400547 -1.01411 24.7824
0.435604 -1.00969 24.7816
0.464628 -1.00835 24.7224
0.492323 -1.00881 24.6706
0.521935 -1.00883 24.6467
0.55203 -1.00739 24.6102
0.586805 -1.00379 24.6198
0.618875 -1.00267 24.6214
0.647615 -1.00433 24.6095
0.676635 -1.00623 24.6055
0.709314 -1.0056 24.6228
0.739596 -1.00769 24.6398
0.770858 -1.0079 24.6461
0.803953 -1.00765 24.6725
0.833463 -1.01031 24.684
0.864751 -1.01204 24.708
0.897941 -1.01313 24.7492
0.931111 -1.01416 24.7881
0.9648 -1.01595 24.8413
0.997771 -1.02511 24.9674
1.04117 -1.03051 25.1792
1.07779 -1.03171 25.2538
1.11857 -1.03516 25.4011
1.15121 -1.04364 25.4999
0.403455 -0.980111 24.7912
0.436499 -0.976712 24.7695
0.462139 -0.978128 24.6929
0.49274 -0.976392 24.6574
0.522892 -0.974988 24.6209
0.552679 -0.975263 24.6049
0.585156 -0.97448 24.6184
0.616329 -0.974817 24.6265
0.646406 -0.975377 24.62
0.675129 -0.977056 24.6081
0.708336 -0.976041 24.6285
0.740197 -0.975533 24.6348
0.770238 -0.97611 24.6282
0.80345 -0.976119 24.6603
0.832937 -0.979302 24.6784
0.864247 -0.980899 24.7016
0.897162 -0.980789 24.7254
0.929921 -0.98203 24.7623
0.961327 -0.985341 24.8043
0.994822 -0.98838 24.869
1.02942 -0.985919 24.8834
1.07084 -1.00072 25.1761
1.10819 -1.00027 25.2415
1.15184 -1.00788 25.4691
0.385806 -0.998226 25.9243
0.399488 -0.952822 24.7824
0.430925 -0.949411 24.7304
0.462577 -0.945699 24.6796
0.492802 -0.944335 24.643
0.522636 -0.944627 24.6271
0.552431 -0.944926 24.6111
0.582683 -0.945616 24.6095
0.616727 -0.942812 24.6191
0.647035 -0.94326 24.6148
0.674903 -0.946719 24.6144
0.708071 -0.945584 24.6328
0.739983 -0.945165 24.6412
0.769644 -0.946167 24.6343
0.801012 -0.947231 24.6536
0.831965 -0.948118 24.664
0.865762 -0.946802 24.6864
0.896341 -0.949667 24.715
0.92815 -0.95183 24.7509
0.960196 -0.953278 24.7803
0.993647 -0.953366 24.8112
1.026 -0.954715 24.8415
1.05755 -0.962688 24.9353
1.1018 -0.967834 25.1548
1.13751 -0.96968 25.2252
1.16677 -0.974914 25.2512
0.369168 -0.921148 24.7917
0.399973 -0.9201 24.7658
0.431403 -0.916716 24.7133
0.462662 -0.913636 24.6651
0.493547 -0.912566 24.645
0.522385 -0.91426 24.6332
0.55228 -0.913578 24.6034
0.583331 -0.913215 24.5995
0.614943 -0.912899 24.6059
0.647008 -0.91128 24.6006
0.675705 -0.912987 24.5887
0.708709 -0.913264 24.6252
0.739765 -0.913783 24.6336
0.768445 -0.915504 24.6216
0.799272 -0.91786 24.6505
0.831771 -0.917712 24.6704
0.864425 -0.916942 24.6837
0.896162 -0.917562 24.7011
0.926756 -0.921648 24.7445
0.959081 -0.922226 24.7678
0.992504 -0.921799 24.7929
1.02382 -0.922123 24.7983
1.05596 -0.923794 24.8295
1.09818 -0.932322 25.0661
1.13286 -0.934628 25.1313
1.1671 -0.936647 25.1857
1.19833 -0.939502 25.2107
0.366966 -0.89031 24.7528
0.400325 -0.887495 24.7477
0.431296 -0.885255 24.7054
0.462401 -0.883215 24.6712
0.49342 -0.88119 24.6371
0.522437 -0.88228 24.6188
0.553122 -0.880874 24.5914
0.585576 -0.880044 24.605
0.616726 -0.880353 24.6132
0.646782 -0.880938 24.6068
0.675485 -0.882661 24.595
0.70867 -0.881573 24.6154
0.73955 -0.882419 24.626
0.76951 -0.882981 24.6178
0.803081 -0.883462 24.6638
0.83158 -0.887298 24.6768
0.863299 -0.887889 24.6943
0.895983 -0.887109 24.7076
0.927827 -0.888212 24.7319
0.959637 -0.889949 24.7628
0.990211 -0.892013 24.7798
1.02458 -0.890178 24.8008
1.05719 -0.891115 24.8301
1.08925 -0.899079 24.9319
1.12521 -0.899691 24.9975
1.1568 -0.902767 25.0331
1.19134 -0.904902 25.0939
1.22848 -0.907312 25.1875
0.395852 -0.860128 24.7246
0.431113 -0.854299 24.7044
0.462143 -0.852787 24.6773
0.493296 -0.849833 24.6292
0.52311 -0.850184 24.6134
0.551892 -0.851908 24.6017
0.584355 -0.851062 24.6153
0.615517 -0.851362 24.6235
0.645584 -0.851956 24.6171
0.674299 -0.853696 24.6053
0.707494 -0.852583 24.6258
0.739345 -0.852046 24.6322
0.769377 -0.852657 24.6257
0.8011 -0.853273 24.6456
0.831336 -0.855899 24.6692
0.863081 -0.856957 24.6937
0.89487 -0.858023 24.7181
0.927602 -0.857232 24.7314
0.959426 -0.857824 24.7488
0.989076 -0.860543 24.7614
1.02331 -0.858174 24.7749
1.05394 -0.860883 24.7997
1.08744 -0.864888 24.8764
1.12152 -0.866407 24.9298
1.15551 -0.866705 24.9664
1.18746 -0.868947 24.998
1.22081 -0.871233 25.0463
1.25493 -0.873802 25.1054
1.28661 -0.87386 25.1071
0.3951 -0.829791 24.7232
0.429917 -0.824721 24.7076
0.462034 -0.821398 24.6693
0.493048 -0.819447 24.6353
0.521871 -0.821185 24.6236
0.550664 -0.822926 24.6119
0.583312 -0.821461 24.619
0.615349 -0.821027 24.6312
0.645365 -0.821593 24.6232
0.675038 -0.822618 24.6166
0.707241 -0.822125 24.63
0.739143 -0.821667 24.6385
0.770063 -0.822493 24.649
0.802001 -0.822521 24.6641
0.832395 -0.823333 24.6654
0.866124 -0.823722 24.7115
0.894696 -0.827548 24.7245
0.927245 -0.827819 24.7491
0.959264 -0.82731 24.7553
0.990002 -0.827814 24.7558
1.02151 -0.82803 24.7634
1.05365 -0.829357 24.7928
1.08542 -0.833705 24.8518
1.12232 -0.831668 24.9022
1.15242 -0.834068 24.9136
1.18398 -0.835965 24.9376
1.2184 -0.837229 24.9896
1.25177 -0.838761 25.03
1.28635 -0.840271 25.0837
0.396478 -0.79643 24.7099
0.431638 -0.791174 24.6979
0.461928 -0.790028 24.6613
0.492804 -0.789056 24.6413
0.521632 -0.790809 24.6296
0.55048 -0.792098 24.6109
0.585078 -0.788976 24.6271
0.616455 -0.788518 24.6272
0.645194 -0.790285 24.6154
0.674059 -0.793091 24.6223
0.706259 -0.792459 24.6337
0.73798 -0.792169 24.6418
0.768913 -0.793453 24.6594
0.800861 -0.793464 24.6745
0.832283 -0.792944 24.6734
0.864099 -0.793528 24.6933
0.89517 -0.795815 24.724
0.927018 -0.79722 24.7535
0.959106 -0.796788 24.7618
0.988809 -0.79787 24.7548
1.02044 -0.798868 24.774
1.05713 -0.798113 24.841
1.08632 -0.802333 24.8637
1.1193 -0.801543 24.8769
1.15139 -0.802135 24.8943
1.18378 -0.803693 24.9257
1.21684 -0.803526 24.9455
1.24921 -0.806137 24.9865
1.28133 -0.80926 25.0287
1.31498 -0.812307 25.0873
0.39506 -0.765454 24.6805
0.428869 -0.760277 24.6415
0.46168 -0.759598 24.6673
0.491624 -0.75955 24.6444
0.52151 -0.759505 24.6216
0.551533 -0.759927 24.6106
0.585232 -0.756988 24.6134
0.616298 -0.757214 24.6193
0.645026 -0.758995 24.6075
0.676526 -0.760393 24.6392
0.709069 -0.759517 24.6529
0.736821 -0.763129 24.6521
0.767963 -0.76384 24.6649
0.799723 -0.764389 24.6849
0.833028 -0.762681 24.6968
0.865048 -0.762686 24.7119
0.897386 -0.763075 24.7364
0.926057 -0.767416 24.7574
0.958826 -0.765326 24.7542
0.990304 -0.764924 24.7539
1.01934 -0.769206 24.778
1.05594 -0.767255 24.83
1.08686 -0.769976 24.8587
1.1176 -0.771995 24.8757
1.15127 -0.771447 24.901
1.18358 -0.771446 24.9138
1.21542 -0.771979 24.9263
1.24783 -0.775175 24.9752
1.28333 -0.774928 25.0235
1.31918 -0.776729 25.0966
0.431511 -0.728736 24.6891
0.459123 -0.728869 24.6179
0.491669 -0.72719 24.62
0.522059 -0.72668 24.5992
0.552923 -0.728055 24.6222
0.585879 -0.726615 24.6362
0.616082 -0.726833 24.6253
0.646148 -0.72746 24.619
0.678995 -0.727648 24.6562
0.708875 -0.728647 24.652
0.740624 -0.728339 24.6602
0.769098 -0.732613 24.6814
0.79995 -0.734124 24.7007
0.831903 -0.733573 24.7071
0.863933 -0.733561 24.7223
0.898263 -0.732247 24.7547
0.929852 -0.732035 24.7588
0.958549 -0.73388 24.7466
0.990521 -0.734071 24.7615
1.0217 -0.73811 24.8138
1.05669 -0.737213 24.8564
1.08668 -0.738275 24.8517
1.11804 -0.741107 24.8873
1.15116 -0.740752 24.9077
1.1825 -0.741623 24.9179
1.21493 -0.741676 24.9328
1.24875 -0.741534 24.9627
1.28166 -0.744124 25.0107
1.32029 -0.743354 25.0914
0.520391 -0.697421 24.5957
0.554025 -0.697122 24.6453
0.586112 -0.695981 24.6472
0.616214 -0.696614 24.6409
0.646829 -0.697505 24.6489
0.677819 -0.698572 24.6664
0.70771 -0.699577 24.6622
0.740299 -0.698675 24.6759
0.771011 -0.701369 24.7118
0.800182 -0.703828 24.7164
0.832214 -0.703793 24.7316
0.865579 -0.70206 24.7436
0.897496 -0.702583 24.7636
0.929696 -0.701493 24.7652
0.958398 -0.703355 24.753
0.991791 -0.702716 24.7784
1.02509 -0.706848 24.8637
1.05772 -0.70529 24.8636
1.08897 -0.706846 24.8826
1.12159 -0.706241 24.8938
1.15003 -0.710953 24.9113
1.18231 -0.711944 24.9358
1.2154 -0.711121 24.9492
1.24924 -0.710533 24.9745
1.28104 -0.712818 25.0052
1.3199 -0.710673 25.0749
0.541999 -0.652187 24.783
0.612371 -0.669918 24.6401
0.646665 -0.667997 24.6713
0.677801 -0.668215 24.6773
0.710819 -0.667178 24.697
0.743009 -0.666373 24.7047
0.772017 -0.668762 24.7058
0.802503 -0.670229 24.7182
0.832961 -0.673393 24.7551
0.867453 -0.671444 24.7822
0.899863 -0.670417 24.7878
0.930003 -0.671106 24.7811
0.962168 -0.671076 24.7962
0.998689 -0.672047 24.8909
1.02644 -0.675673 24.8857
1.0571 -0.676122 24.8823
1.08884 -0.676926 24.8988
1.12185 -0.676072 24.9122
1.15031 -0.680768 24.9299
1.18213 -0.682228 24.9538
1.21587 -0.680532 24.9655
1.24838 -0.680556 24.9804
1.281 -0.681771 25.0101
1.31496 -0.683591 25.0627
0.388665 -0.595423 25.0417
0.80545 -0.6415 24.8071
0.83738 -0.640876 24.8102
0.869069 -0.641073 24.8215
0.898764 -0.641182 24.7982
0.930843 -0.640624 24.8047
0.96303 -0.640577 24.8199
0.99527 -0.644692 24.8923
1.02592 -0.646094 24.9014
1.05943 -0.645097 24.9209
1.09194 -0.644339 24.9284
1.12179 -0.64658 24.9352
1.15204 -0.650025 24.9625
1.18318 -0.651563 24.9778
1.21779 -0.649509 24.9968
1.2539 -0.646794 25.0275
1.28516 -0.649422 25.0553
1.31401 -0.654058 25.0737
0.839119 -0.609889 24.8441
0.867924 -0.611369 24.8249
0.897668 -0.611929 24.8086
0.926436 -0.613839 24.7964
1.07102 -0.605866 24.9912
1.12449 -0.613932 24.9586
1.15638 -0.615388 24.9844
1.18627 -0.617629 24.9906
1.2197 -0.618415 25.0281
1.25512 -0.616529 25.0593
0.619068 -0.55932 25.1144
1.19278 -0.584488 25.0629
0.891427 -0.520536 25.2977
0.920737 -0.522536 25.285
0.950017 -0.52454 25.2722
0.982675 -0.523966 25.2787
1.2472 -0.534425 25.5628
0.727768 -0.492772 25.273
0.854241 -0.49343 25.2734
0.8889 -0.491934 25.3028
0.919632 -0.4927 25.2958
0.950348 -0.493472 25.2887
0.983136 -0.493352 25.3044
1.01583 -0.492775 25.3109
1.04507 -0.494809 25.298
1.08416 -0.4911 25.3637
1.18043 -0.495024 25.4265
1.21053 -0.501054 25.4783
1.24927 -0.4972 25.5276
0.664332 -0.464455 25.3428
0.694849 -0.46434 25.3112
0.729504 -0.460231 25.2948
0.763579 -0.458794 25.3165
0.792988 -0.460813 25.3038
0.822366 -0.462836 25.2911
0.853116 -0.463602 25.2842
0.885855 -0.463448 25.2999
0.918529 -0.462846 25.3066
0.949257 -0.463627 25.2995
0.982057 -0.46349 25.3152
1.01476 -0.462904 25.3218
1.04891 -0.462033 25.3482
1.08019 -0.463902 25.3659
1.11075 -0.466724 25.3848
1.14574 -0.465982 25.4237
1.17942 -0.465024 25.4376
1.21337 -0.465607 25.4758
1.25123 -0.467555 25.5895
0.355884 -0.429552 25.5789
0.420308 -0.42665 25.506
0.449898 -0.428604 25.4848
0.478604 -0.431955 25.4748
0.511885 -0.429239 25.4444
0.541785 -0.430737 25.4248
0.57339 -0.429816 25.3957
0.598044 -0.437822 25.3897
0.634485 -0.430931 25.354
0.664335 -0.431918 25.3275
0.695672 -0.431009 25.2986
0.729035 -0.429955 25.3129
0.76242 -0.428904 25.3272
0.791841 -0.430941 25.3145
0.821232 -0.432982 25.3018
0.85391 -0.432361 25.3086
0.886672 -0.432189 25.3244
0.917429 -0.432974 25.3174
0.948169 -0.433765 25.3103
0.982958 -0.432215 25.3398
1.01369 -0.433015 25.3327
1.04722 -0.432016 25.3466
1.08076 -0.431022 25.3606
1.11598 -0.430273 25.4052
1.1463 -0.433039 25.4185
1.17841 -0.435004 25.4487
1.21801 -0.43116 25.5149
1.25252 -0.433973 25.59
0.319635 -0.404185 25.6416
0.354565 -0.399354 25.5896
0.38453 -0.401383 25.5769
0.419016 -0.396533 25.5166
0.448857 -0.398561 25.504
0.478667 -0.400593 25.4914
0.512816 -0.395765 25.4315
0.542504 -0.397796 25.4189
0.572162 -0.399831 25.4063
0.601788 -0.401869 25.3937
0.634511 -0.398399 25.3386
0.665019 -0.399097 25.3217
0.695866 -0.399861 25.3149
0.728569 -0.399641 25.331
0.761263 -0.398997 25.3379
0.790697 -0.401052 25.3252
0.8201 -0.40311 25.3125
0.853524 -0.40206 25.3267
0.88697 -0.401013 25.3409
0.916331 -0.403085 25.3281
0.949049 -0.402472 25.3348
0.981883 -0.402299 25.3506
1.01263 -0.403108 25.3435
1.04616 -0.402092 25.3575
1.07972 -0.401079 25.3715
1.11251 -0.400495 25.3781
1.14546 -0.40035 25.3937
1.176 -0.404799 25.4346
1.21558 -0.400869 25.5008
1.25079 -0.403684 25.5886
0.318504 -0.373955 25.6609
0.35325 -0.369139 25.6003
0.383227 -0.371186 25.5876
0.417727 -0.366398 25.5273
0.44758 -0.368444 25.5147
0.478439 -0.369153 25.4976
0.511566 -0.365727 25.4421
0.541266 -0.367776 25.4295
0.570936 -0.369828 25.4169
0.602494 -0.368987 25.3878
0.634314 -0.367136 25.3449
0.665198 -0.367905 25.3381
0.697914 -0.367661 25.3542
0.730632 -0.367003 25.3612
0.760109 -0.369072 25.3485
0.789555 -0.371145 25.3358
0.823048 -0.368532 25.3222
0.85477 -0.368815 25.3256
0.887803 -0.367189 25.3215
0.917139 -0.369274 25.3088
0.949619 -0.370425 25.3414
0.983184 -0.369746 25.3629
1.01251 -0.371848 25.35
1.04681 -0.368749 25.3452
1.08035 -0.367719 25.3593
1.11028 -0.369897 25.3588
1.14445 -0.370363 25.4046
1.18098 -0.36821 25.4495
1.21314 -0.370623 25.4867
1.24833 -0.373337 25.5745
0.348364 -0.342146 25.5832
0.381928 -0.340972 25.5982
0.416441 -0.336245 25.5379
0.446307 -0.338309 25.5253
0.477251 -0.338683 25.5007
0.510319 -0.335672 25.4527
0.540031 -0.337739 25.4401
0.569714 -0.339809 25.4274
0.602547 -0.336459 25.3723
0.634478 -0.3359 25.3612
0.667206 -0.335632 25.3774
0.699948 -0.334961 25.3844
0.729468 -0.337044 25.3718
0.758957 -0.339131 25.3591
0.789392 -0.339891 25.3421
0.82615 -0.333936 25.3355
0.859078 -0.332302 25.3286
0.888435 -0.334398 25.3159
0.919181 -0.335209 25.309
0.952656 -0.335551 25.3481
0.983 -0.337246 25.3479
1.01302 -0.33781 25.323
1.04466 -0.337309 25.3117
1.07954 -0.33567 25.3412
1.10931 -0.33784 25.3383
1.14217 -0.33886 25.3711
1.17577 -0.337829 25.3852
1.20714 -0.340134 25.4097
1.25105 -0.336872 25.5568
0.35063 -0.308658 25.6215
0.380632 -0.310741 25.6088
0.415386 -0.306094 25.557
0.445037 -0.308158 25.5358
0.474145 -0.310185 25.4975
0.509074 -0.3056 25.4632
0.538799 -0.307685 25.4506
0.568494 -0.309773 25.4379
0.603706 -0.303847 25.3843
0.638255 -0.302079 25.4145
0.669211 -0.302869 25.4077
0.698774 -0.304966 25.395
0.728307 -0.307067 25.3824
0.757808 -0.309172 25.3697
0.793686 -0.303877 25.3549
0.828562 -0.300257 25.3519
0.857963 -0.302367 25.3393
0.887333 -0.304481 25.3266
0.920797 -0.30339 25.3408
0.954283 -0.302304 25.3551
0.983611 -0.304431 25.3423
1.01291 -0.306562 25.3295
1.04217 -0.308697 25.3167
1.0774 -0.304919 25.3187
1.11013 -0.305252 25.3406
1.13935 -0.307399 25.3277
1.17282 -0.30723 25.3534
1.20885 -0.306195 25.4081
1.24504 -0.305918 25.4744
0.355878 -0.271749 25.6619
0.420951 -0.269287 25.6057
0.444478 -0.278013 25.572
0.476222 -0.276769 25.5227
0.508601 -0.275535 25.4993
0.53757 -0.277614 25.4611
0.573198 -0.273118 25.4522
0.608785 -0.268621 25.4435
0.638422 -0.270728 25.4309
0.668028 -0.27284 25.4182
0.697603 -0.274955 25.4056
0.727148 -0.277074 25.3929
0.758047 -0.277885 25.386
0.827794 -0.270299 25.3709
0.856851 -0.272416 25.3499
0.886233 -0.274547 25.3372
0.915584 -0.276682 25.3244
0.949945 -0.273922 25.3271
0.983697 -0.271147 25.3173
1.01358 -0.273311 25.3171
1.04283 -0.275459 25.3043
1.0721 -0.277129 25.2846
1.10784 -0.273233 25.2951
1.13974 -0.27346 25.3009
1.16983 -0.27656 25.3185
1.20532 -0.273796 25.3403
1.23822 -0.275613 25.3848
1.27037 -0.277908 25.4219
0.385279 -0.243531 25.6857
0.419898 -0.239015 25.625
0.449854 -0.241136 25.6123
0.484477 -0.236641 25.5604
0.514061 -0.238765 25.5392
0.543863 -0.240887 25.5266
0.578179 -0.236414 25.4751
0.60758 -0.238539 25.454
0.637229 -0.240665 25.4414
0.666847 -0.242794 25.4288
0.696435 -0.244927 25.4161
0.727372 -0.245743 25.4092
0.760196 -0.245435 25.4255
0.792655 -0.244752 25.4241
0.825343 -0.24162 25.3774
0.855741 -0.242447 25.3604
0.885136 -0.244597 25.3477
0.916312 -0.243457 25.3119
0.945702 -0.245136 25.2923
0.980051 -0.241662 25.2829
1.01283 -0.241395 25.2988
1.04349 -0.242248 25.2919
1.0727 -0.244413 25.2791
1.10536 -0.243784 25.2858
1.13966 -0.242232 25.3074
1.16881 -0.244411 25.2945
1.20305 -0.243345 25.321
1.2358 -0.24559 25.3706
1.27456 -0.24174 25.4293
0.45359 -0.205174 25.6224
0.477783 -0.213038 25.5843
0.51282 -0.208569 25.5498
0.542635 -0.21071 25.5371
0.571587 -0.212887 25.4988
0.606378 -0.208441 25.4645
0.636039 -0.210584 25.4519
0.665669 -0.212731 25.4392
0.696644 -0.213553 25.4324
0.731338 -0.211692 25.4627
0.762309 -0.212524 25.4559
0.792848 -0.213372 25.4388
0.825196 -0.210298 25.3837
