-7.25659 -86.4676 259.145
-6.76824 -86.4627 259.23
-6.42175 -86.7135 259.782
-5.84784 -86.5631 259.61
-5.31683 -86.4856 259.566
-4.84563 -86.5119 259.705
-4.32642 -86.5279 259.921
-3.45823 -86.5435 259.91
-2.93792 -86.5298 260.035
-2.47497 -86.5404 260.102
-1.98502 -86.5357 260.185
-1.49147 -86.4696 260.09
-1.02841 -86.4802 260.156
-0.5652 -86.4907 260.222
-0.101853 -86.5012 260.287
0.361635 -86.5117 260.352
0.833991 -86.4872 260.333
1.41426 -86.4023 260.377
1.96187 -86.3659 260.491
2.42292 -86.3175 260.378
2.86368 -86.4258 260.674
3.35496 -86.4273 260.77
3.81749 -86.4084 260.744
4.28357 -86.4484 260.895
4.7461 -86.4295 260.868
5.2127 -86.4694 261.018
5.70209 -86.4356 261.006
6.19279 -86.3704 260.909
6.6574 -86.3809 260.97
7.19545 -86.3099 260.959
7.56994 -86.4885 261.293
8.08621 -86.3492 261.046
8.55112 -86.3597 261.104
9.05988 -86.3984 261.333
9.56161 -86.4504 261.582
10.0735 -86.4287 261.65
10.5393 -86.4392 261.706
11.0052 -86.4496 261.762
11.4943 -86.3846 261.663
11.9977 -86.4585 261.968
12.3727 -86.5918 262.161
12.9277 -86.4597 262.019
13.4222 -86.5699 262.397
13.9555 -86.556 262.524
14.4227 -86.5662 262.577
14.89 -86.5765 262.629
15.3574 -86.5867 262.681
15.8248 -86.5969 262.732
16.2924 -86.607 262.783
16.8378 -86.6222 263.005
17.3843 -86.6722 263.318
17.8527 -86.6823 263.367
18.3211 -86.6924 263.416
18.7897 -86.7024 263.464
19.2583 -86.7124 263.512
19.7458 -86.6478 263.407
20.1924 -86.7666 263.685
20.7486 -86.6575 263.606
21.2925 -86.7228 263.94
21.8025 -86.6896 263.959
22.2718 -86.6996 264.004
22.7411 -86.7095 264.048
23.2106 -86.7194 264.092
23.6801 -86.7292 264.136
24.1496 -86.739 264.179
24.6193 -86.7487 264.221
25.089 -86.7584 264.263
25.5588 -86.7681 264.304
26.0967 -86.785 264.494
26.6514 -86.7811 264.666
27.1122 -86.756 264.604
27.5585 -86.8192 264.726
28.13 -86.6361 264.499
28.5615 -86.7152 264.629
29.0274 -86.7578 264.737
29.5244 -86.7062 264.682
29.9946 -86.7157 264.719
30.4805 -86.6839 264.688
30.9486 -86.6611 264.645
31.437 -86.6279 264.616
31.9163 -86.6661 264.735
32.4477 -86.6541 264.835
32.9933 -86.616 264.901
33.4051 -86.6884 264.97
33.9194 -86.7093 265.111
34.4516 -86.6877 265.188
34.9338 -86.5902 264.999
35.3826 -86.6525 265.111
35.8752 -86.6423 265.139
36.4043 -86.6021 265.166
36.8368 -86.6843 265.29
37.3235 -86.6923 265.346
37.8392 -86.647 265.336
38.3471 -86.6462 265.41
38.8939 -86.533 265.307
39.3496 -86.6854 265.623
39.8208 -86.6943 265.65
40.3011 -86.6306 265.535
40.8223 -86.6831 265.745
41.3547 -86.7075 265.914
41.8363 -86.7956 266.129
42.3698 -86.7127 266.066
42.8335 -86.7938 266.231
43.3054 -86.8024 266.254
43.7773 -86.811 266.277
44.2514 -86.8528 266.374
44.812 -86.9217 266.679
45.3857 -86.9502 266.92
45.8584 -86.9586 266.94
46.4061 -87.0459 267.256
46.8205 -87.1744 267.424
47.3696 -87.1365 267.478
47.9191 -87.1528 267.645
48.4691 -87.1691 267.811
49.0435 -87.2584 268.168
49.5176 -87.2664 268.184
49.9901 -87.3795 268.411
50.5343 -87.4799 268.734
51.0875 -87.5974 269.104
51.6771 -87.637 269.376
52.2463 -87.7672 269.794
52.7475 -87.8507 270.001
53.3017 -87.9711 270.369
53.846 -88.1319 270.799
54.3916 -88.1265 270.897
54.9776 -88.3467 271.51
55.4704 -88.3823 271.598
56.0712 -88.4566 271.941
56.617 -88.5923 272.311
57.2005 -88.7555 272.795
57.8844 -88.9055 273.416
58.4447 -89.1113 273.938
59.0171 -89.2431 274.333
59.59 -89.3631 274.703
60.0956 -89.4124 274.825
60.7205 -89.5802 275.367
61.2583 -89.6926 275.659
61.8876 -89.8169 276.119
62.5378 -90.0291 276.778
63.1069 -90.1839 277.193
63.7393 -90.3521 277.732
64.3447 -90.5268 278.237
64.9429 -90.5213 278.387
65.4429 -90.6663 278.663
65.9173 -90.7131 278.712
66.5109 -90.7438 278.919
67.0931 -90.8163 279.185
67.607 -90.9069 279.375
68.2178 -90.9863 279.694
68.88 -91.1363 280.223
69.4732 -91.3076 280.68
69.9693 -91.3455 280.738
70.4971 -91.3485 280.78
71.1008 -91.4514 281.122
71.6877 -91.5516 281.431
72.3281 -91.6557 281.827
72.847 -91.7336 281.987
73.3449 -91.7711 282.039
73.9276 -91.7844 282.179
74.5565 -91.8649 282.508
75.077 -91.9424 282.664
75.6675 -92.0292 282.942
76.2407 -92.1574 283.265
76.7404 -92.1944 283.313
77.3449 -92.2242 283.507
77.95 -92.2541 283.7
78.4503 -92.2909 283.746
79.0263 -92.3556 283.955
79.6581 -92.4647 284.322
80.1499 -92.4676 284.294
80.8044 -92.5652 284.672
81.4053 -92.668 284.977
82.0656 -92.7648 285.358
82.5957 -92.8816 285.578
83.0791 -92.9258 285.603
83.7248 -93.0413 285.988
84.3175 -93.0908 286.181
84.9291 -93.1202 286.366
85.5411 -93.1496 286.551
86.0451 -93.1853 286.587
86.6247 -93.2849 286.84
87.2704 -93.3578 287.143
87.7639 -93.4738 287.295
88.3892 -93.5365 287.548
89.0042 -93.5656 287.729
89.6012 -93.663 287.995
90.2473 -93.7713 288.348
90.7777 -93.7662 288.347
91.4206 -93.9603 288.833
91.9895 -93.9782 288.922
92.4966 -94.0129 288.95
93.0797 -94.0488 289.087
93.7004 -94.1908 289.449
94.2675 -94.1789 289.483
94.91 -94.3137 289.86
95.4746 -94.3565 289.977
96.1078 -94.4187 290.221
96.7292 -94.4473 290.392
97.238 -94.4814 290.415
97.8717 -94.5822 290.716
98.4869 -94.652 290.941
98.976 -94.6938 290.945
99.641 -94.76 291.231
100.249 -94.8563 291.483
100.859 -94.887 291.634
101.466 -94.9057 291.761
101.986 -94.9644 291.83
102.518 -95.0185 291.908
103.108 -95.0713 292.062
103.764 -95.1159 292.29
104.382 -95.1955 292.521
104.946 -95.3065 292.726
105.518 -95.3382 292.818
106.164 -95.3463 292.973
106.744 -95.2569 292.888
107.232 -95.4059 293.044
107.802 -95.4063 293.083
108.394 -95.4407 293.202
109.069 -95.5748 293.581
109.685 -95.6172 293.742
110.323 -95.6712 293.948
110.859 -95.7242 294.015
111.364 -95.8078 294.087
111.884 -95.7671 293.993
112.54 -95.8491 294.259
113.109 -95.8279 294.258
113.739 -95.871 294.431
114.406 -95.9878 294.759
114.934 -95.9881 294.733
115.531 -96.0543 294.893
116.028 -96.0527 294.824
116.768 -96.1412 295.199
117.296 -96.1068 295.12
117.823 -96.2352 295.277
118.486 -96.2454 295.435
119.106 -96.3026 295.604
119.726 -96.3317 295.734
120.297 -96.3101 295.725
120.777 -96.4439 295.824
121.37 -96.3687 295.767
122.027 -96.4856 296.064
122.646 -96.5272 296.204
123.296 -96.5797 296.398
123.793 -96.5771 296.32
124.4 -96.636 296.466
125.083 -96.7423 296.774
125.596 -96.7728 296.762
126.235 -96.7991 296.898
126.856 -96.7922 296.966
127.444 -96.8032 297.017
128.121 -96.9101 297.311
128.665 -96.9081 297.287
129.214 -96.9782 297.37
129.921 -97.0778 297.686
130.427 -97.0398 297.565
130.949 -97.106 297.606
131.63 -97.2207 297.907
132.545 -97.314 298.461
-27.4353 -85.7159 255.117
-26.959 -85.6362 254.922
-26.6425 -85.7283 254.948
-26.03 -85.5669 254.81
-25.5555 -85.4876 254.617
-25.0815 -85.4084 254.423
-24.6286 -85.4186 254.505
-24.1689 -85.3991 254.496
-23.6283 -85.2796 254.332
-23.0822 -85.1307 254.077
-22.6299 -85.1411 254.16
-22.1774 -85.1516 254.242
-21.7247 -85.1621 254.324
-21.2718 -85.1725 254.406
-20.7928 -85.1729 254.518
-20.3821 -85.2824 254.843
-19.861 -85.2078 254.794
-19.3285 -85.1641 254.885
-18.9474 -85.2443 255.025
-18.4615 -85.2843 255.289
-17.9809 -85.2849 255.4
-17.5262 -85.2955 255.479
-17.0713 -85.306 255.559
-16.5867 -85.3264 255.745
-16.1313 -85.337 255.823
-15.5866 -85.3772 256.225
-15.1305 -85.3879 256.303
-14.6743 -85.3986 256.381
-14.2179 -85.4093 256.458
-13.7613 -85.42 256.535
-13.2436 -85.4506 256.827
-12.7158 -85.3924 256.847
-12.3321 -85.5016 257.071
-11.889 -85.6605 257.6
-11.3913 -85.5923 257.511
-10.9329 -85.603 257.586
-10.5517 -85.7712 257.988
-10.0736 -85.7879 258.127
-9.57657 -85.9018 258.624
-9.11121 -85.9323 258.773
-8.62411 -85.9333 258.878
-8.16341 -85.9439 258.95
-7.70255 -85.9545 259.022
-7.24153 -85.9651 259.093
-6.75366 -85.9662 259.197
-6.22157 -86.0174 259.561
-5.75384 -86.0479 259.707
-5.26404 -86.0194 259.72
-4.8027 -86.0597 259.879
-4.34027 -86.0703 259.948
-3.87769 -86.0809 260.017
-3.41496 -86.0915 260.085
-2.95184 -86.0724 260.063
-2.45521 -86.0344 260.06
-1.95876 -85.9668 259.968
-1.46275 -85.8995 259.875
-1.00014 -85.9101 259.942
-0.480978 -85.9088 260.1
-0.0403138 -85.9419 260.183
0.388567 -85.9419 260.14
0.885179 -85.9278 260.207
1.458 -85.9371 260.514
1.94877 -85.9386 260.612
2.41259 -85.9493 260.676
2.87654 -85.9599 260.74
3.34063 -85.9705 260.803
3.80485 -85.9811 260.866
4.26921 -85.9917 260.928
4.7337 -86.0022 260.99
5.19624 -85.9834 260.963
5.65642 -85.9352 260.848
6.34177 -85.783 260.928
6.8594 -85.8667 261.31
7.31903 -85.8188 261.195
7.78105 -85.8002 261.167
8.24877 -85.8401 261.315
8.71382 -85.8508 261.374
9.179 -85.8614 261.433
9.6443 -85.8719 261.491
10.1063 -85.8533 261.461
10.5717 -85.8638 261.518
11.0409 -85.9035 261.663
11.5029 -85.8848 261.632
12.0563 -85.9328 261.974
12.5813 -85.9204 262.091
13.0241 -85.9687 262.198
13.5185 -85.9705 262.288
13.9852 -85.9809 262.342
14.452 -85.9913 262.395
14.9236 -86.0307 262.535
15.3859 -86.0119 262.5
15.881 -86.0136 262.587
16.3979 -86.0546 262.821
16.9154 -86.0957 263.055
17.4113 -86.0974 263.141
17.8793 -86.1076 263.191
18.3474 -86.1178 263.24
18.8156 -86.128 263.289
19.2839 -86.1381 263.337
19.818 -86.1549 263.535
20.2392 -86.2454 263.691
20.7836 -86.2064 263.765
21.3188 -86.2233 263.961
21.788 -86.2333 264.007
22.2573 -86.2432 264.052
22.7267 -86.2532 264.097
23.1962 -86.2631 264.141
23.6657 -86.2729 264.185
24.1353 -86.2828 264.228
24.605 -86.2926 264.27
25.1034 -86.294 264.348
25.6275 -86.3347 264.572
26.1234 -86.317 264.596
26.6435 -86.348 264.785
27.1399 -86.3113 264.764
27.6282 -86.2457 264.657
28.1418 -86.1341 264.49
28.6117 -86.1438 264.529
29.0732 -86.1247 264.484
29.5857 -86.1457 264.63
30.0985 -86.1668 264.776
30.5688 -86.1764 264.813
30.9962 -86.1745 264.742
31.5095 -86.1954 264.886
31.921 -86.2681 264.957
32.4669 -86.2299 265.023
33.008 -86.2467 265.208
33.4788 -86.2561 265.241
33.9646 -86.1909 265.132
34.4353 -86.2002 265.165
34.9205 -86.1352 265.055
35.4053 -86.0702 264.945
35.8998 -86.0339 264.918
36.4659 -86.0532 265.149
37.0085 -86.0699 265.329
37.4793 -86.0792 265.359
37.9501 -86.0884 265.389
38.421 -86.0976 265.419
38.8919 -86.1067 265.448
39.3629 -86.1158 265.476
39.8339 -86.1249 265.504
40.3049 -86.1339 265.531
40.8494 -86.1505 265.707
41.4004 -86.2059 265.977
41.9018 -86.207 266.04
42.3734 -86.2159 266.065
42.845 -86.2247 266.089
43.3167 -86.2334 266.113
43.7884 -86.2421 266.136
44.3534 -86.2741 266.374
44.9189 -86.3061 266.611
45.3911 -86.3147 266.632
45.8481 -86.3649 266.715
46.4343 -86.4487 267.093
46.9723 -86.4565 267.225
47.4211 -86.6604 267.61
47.9075 -86.697 267.71
48.4744 -86.703 267.884
49.0467 -86.7605 268.174
49.5208 -86.7686 268.19
50.0256 -86.769 268.242
50.6254 -86.8729 268.669
51.126 -87.0195 269.011
51.6802 -87.1645 269.438
52.2537 -87.1961 269.665
52.7605 -87.1962 269.714
53.3896 -87.5109 270.603
53.8528 -87.5598 270.672
54.4089 -87.5756 270.831
54.9926 -87.6642 271.18
55.4719 -87.7765 271.4
56.0387 -87.9545 271.893
56.6493 -87.9784 272.152
57.2742 -88.2036 272.83
57.8592 -88.3664 273.314
58.4263 -88.5113 273.731
59.0032 -88.6642 274.177
59.5893 -88.7539 274.512
60.1405 -88.8217 274.744
60.6657 -89.0172 275.18
61.2576 -89.1092 275.522
61.8847 -89.1796 275.877
62.4549 -89.3819 276.391
63.1626 -89.5381 277.035
63.7547 -89.7479 277.591
64.3317 -89.895 278
64.9459 -89.9417 278.277
65.4198 -89.9888 278.327
65.9067 -90.0664 278.456
66.4873 -90.1836 278.806
67.0968 -90.3086 279.214
67.6687 -90.323 279.355
68.2541 -90.3766 279.588
68.9025 -90.5233 280.091
69.475 -90.7259 280.575
69.9964 -90.7233 280.599
70.5066 -90.7477 280.654
71.1267 -90.7979 280.926
71.7433 -90.9721 281.418
72.3397 -91.1179 281.823
72.8479 -91.1509 281.886
73.3376 -91.1549 281.866
73.9628 -91.2011 282.131
74.5297 -91.2567 282.321
75.0564 -91.3826 282.574
75.651 -91.5288 282.966
76.2408 -91.5738 283.168
76.7883 -91.5904 283.253
77.4159 -91.6403 283.518
77.9409 -91.6368 283.532
78.4658 -91.6334 283.546
79.0666 -91.7764 283.93
79.6483 -91.8469 284.157
80.1819 -91.9571 284.378
80.7779 -92.0432 284.65
81.4514 -92.0668 284.927
82.0512 -92.1193 285.143
82.5947 -92.2963 285.488
83.0848 -92.4128 285.648
83.7209 -92.4584 285.9
84.306 -92.4715 286.021
84.9174 -92.5007 286.207
85.5292 -92.53 286.392
86.0227 -92.5323 286.357
86.6446 -92.7087 286.803
87.2678 -92.8851 287.248
87.762 -92.8871 287.211
88.4029 -92.9324 287.458
88.9912 -92.9451 287.574
89.6151 -93.0001 287.81
90.2339 -93.1502 288.195
90.8627 -93.3264 288.635
91.4802 -93.3552 288.813
92.0709 -93.3676 288.924
92.6207 -93.4635 289.114
93.1756 -93.454 289.137
93.7333 -93.5959 289.41
94.3208 -93.6945 289.653
94.9756 -93.7667 289.947
95.4717 -93.7676 289.901
96.0927 -93.7961 290.074
96.7499 -93.8182 290.286
97.2337 -93.8544 290.277
97.8703 -93.9768 290.619
98.4837 -94.0625 290.867
98.9922 -94.1351 290.948
99.6083 -94.2046 291.172
100.269 -94.2264 291.38
100.885 -94.2774 291.573
101.482 -94.2891 291.674
101.971 -94.3305 291.676
102.554 -94.4133 291.868
103.17 -94.5777 292.232
103.803 -94.599 292.395
104.458 -94.6805 292.68
105.021 -94.6943 292.732
105.556 -94.6878 292.715
106.176 -94.7383 292.901
106.775 -94.7496 292.997
107.309 -94.7429 292.978
107.795 -94.7777 292.956
108.443 -94.8989 293.282
109.065 -94.9834 293.517
109.71 -95.0828 293.803
110.335 -95.1513 294.013
110.87 -95.1443 293.99
111.409 -95.2366 294.121
111.961 -95.1767 294.04
112.593 -95.204 294.194
113.09 -95.2029 294.128
113.762 -95.2737 294.398
114.349 -95.2983 294.486
115.014 -95.4304 294.834
115.66 -95.5304 295.109
116.144 -95.5726 295.086
116.775 -95.6121 295.249
117.372 -95.6413 295.352
117.9 -95.6599 295.349
118.474 -95.6462 295.359
119.17 -95.7136 295.642
119.706 -95.7058 295.61
120.341 -95.7325 295.755
120.893 -95.6723 295.666
121.377 -95.772 295.722
121.985 -95.8672 295.926
122.638 -95.9269 296.136
123.291 -95.9866 296.346
123.807 -96.0555 296.393
124.44 -96.1225 296.585
125.078 -96.1489 296.723
125.575 -96.1463 296.643
126.213 -96.1726 296.781
126.851 -96.1988 296.917
127.49 -96.225 297.053
128.129 -96.2512 297.188
128.621 -96.2889 297.156
129.251 -96.3405 297.313
129.977 -96.5493 297.805
130.469 -96.5866 297.771
130.965 -96.5833 297.684
131.606 -96.6091 297.814
132.536 -96.6931 298.377
-27.4096 -85.2119 255.04
-26.9836 -85.2385 255.113
-26.591 -85.2597 255.075
-25.91 -85.0579 254.966
-25.098 -84.9816 254.52
-24.6382 -84.9621 254.511
-24.1786 -84.9427 254.502
-23.638 -84.8235 254.338
-23.0919 -84.6751 254.083
-22.6396 -84.6856 254.166
-22.1872 -84.696 254.249
-21.7347 -84.7065 254.332
-21.2819 -84.717 254.414
-20.7781 -84.7311 254.64
-20.3192 -84.757 254.792
-19.8598 -84.7829 254.943
-19.3495 -84.7677 255.078
-18.9266 -84.8179 255.219
-18.4463 -84.8184 255.331
-17.9919 -84.829 255.411
-17.5372 -84.8396 255.491
-17.0824 -84.8502 255.571
-16.5685 -84.8802 255.865
-16.054 -84.9104 256.16
-15.5982 -84.9211 256.239
-15.1422 -84.9318 256.318
-14.686 -84.9425 256.396
-14.2297 -84.9532 256.474
-13.7469 -84.954 256.583
-13.2253 -85.0042 256.952
-12.7681 -85.0149 257.029
-12.3271 -85.0815 257.252
-11.8619 -85.125 257.455
-11.3729 -85.1457 257.639
-10.9091 -85.0974 257.532
-10.487 -85.1572 257.681
-10.0041 -85.2665 258.136
-9.51995 -85.376 258.591
-9.05992 -85.3867 258.664
-8.60841 -85.4308 258.824
-8.17668 -85.4865 258.973
-7.71586 -85.4971 259.045
-7.25489 -85.5077 259.117
-6.76709 -85.5088 259.221
-6.22944 -85.5796 259.662
-5.74081 -85.5807 259.766
-5.27873 -85.5914 259.836
-4.81649 -85.602 259.906
-4.3541 -85.6126 259.975
-3.89156 -85.6233 260.044
-3.42887 -85.6339 260.113
-2.93185 -85.5664 260.02
-2.50263 -85.5665 259.979
-1.97269 -85.5097 259.996
-1.50997 -85.5203 260.063
-0.912868 -85.4257 260.119
-0.381872 -85.4574 260.404
0.080755 -85.4388 260.381
0.509625 -85.439 260.338
0.972873 -85.4497 260.404
1.47085 -85.471 260.579
1.93451 -85.4817 260.644
2.3983 -85.4924 260.708
2.86224 -85.503 260.772
3.32784 -85.543 260.925
3.79218 -85.5536 260.988
4.25486 -85.5349 260.962
4.71933 -85.5454 261.024
5.25529 -85.5774 261.304
5.72023 -85.5879 261.366
6.71529 -85.5427 261.44
7.77486 -85.4315 261.467
8.24004 -85.4422 261.527
8.64115 -85.5188 261.633
9.13403 -85.4527 261.536
9.62979 -85.4157 261.528
10.0952 -85.4263 261.586
10.6352 -85.4584 261.862
11.1683 -85.4324 261.962
11.6007 -85.4613 261.997
12.1044 -85.4827 262.163
12.5708 -85.4932 262.218
13.0373 -85.5037 262.274
13.5039 -85.5142 262.328
13.9706 -85.5246 262.383
14.5011 -85.5413 262.586
14.9812 -85.5673 262.708
15.3762 -85.5848 262.629
15.9159 -85.588 262.813
16.461 -85.6204 263.083
16.9288 -85.6307 263.134
17.3967 -85.641 263.185
17.8648 -85.6512 263.235
18.3329 -85.6615 263.285
18.8011 -85.6716 263.334
19.3091 -85.6929 263.492
19.8314 -85.7297 263.717
20.3599 -85.7175 263.828
20.8351 -85.7566 263.962
21.3043 -85.7667 264.008
21.7735 -85.7768 264.055
22.2429 -85.7868 264.1
22.7123 -85.7967 264.145
23.1818 -85.8067 264.19
23.6799 -85.8082 264.269
24.1621 -85.8376 264.386
24.6731 -85.8587 264.538
25.1581 -85.8841 264.648
25.6886 -85.872 264.755
26.125 -85.8993 264.772
26.6555 -85.8452 264.775
27.1439 -85.7799 264.669
27.6141 -85.7896 264.709
28.1441 -85.7357 264.712
28.5721 -85.7341 264.642
29.1018 -85.6803 264.644
29.657 -85.7126 264.9
30.1701 -85.7336 265.046
30.6407 -85.7433 265.084
31.1024 -85.7242 265.036
31.582 -85.7625 265.157
32.0528 -85.772 265.193
32.5236 -85.7815 265.228
32.9945 -85.791 265.263
33.4654 -85.8004 265.297
33.9267 -85.7811 265.246
34.3976 -85.7904 265.28
34.8488 -85.7426 265.145
35.4836 -85.6699 265.295
36.4528 -85.5981 265.205
36.9954 -85.6148 265.386
37.4663 -85.6241 265.417
37.9372 -85.6334 265.447
38.4082 -85.6426 265.477
38.8792 -85.6518 265.506
39.3502 -85.6609 265.535
39.8509 -85.6621 265.599
40.3378 -85.6904 265.698
40.8726 -85.7264 265.899
41.4177 -85.7429 266.074
41.8894 -85.7519 266.1
42.3611 -85.7608 266.125
42.8328 -85.7696 266.15
43.3345 -85.7706 266.211
43.8228 -85.7987 266.305
44.3599 -85.8344 266.502
44.907 -85.8508 266.673
45.3793 -85.8594 266.695
45.8818 -85.8604 266.753
46.4827 -85.9307 267.13
46.9985 -85.9598 267.269
47.4314 -86.1595 267.619
47.9049 -86.1677 267.638
48.4735 -86.2637 268.004
49.0354 -86.3041 268.24
49.5096 -86.3123 268.256
50.0609 -86.3283 268.421
50.6518 -86.3754 268.717
51.1402 -86.4116 268.813
51.6729 -86.6706 269.439
52.2428 -86.7386 269.735
52.7971 -86.7544 269.896
53.3853 -86.8745 270.325
53.8784 -87.0354 270.673
54.4391 -87.1483 271.035
54.9958 -87.164 271.193
55.4735 -87.1712 271.201
56.0524 -87.4688 271.956
56.6391 -87.5187 272.227
57.2574 -87.5888 272.589
57.8281 -87.8899 273.325
58.4314 -87.9367 273.611
58.9903 -87.9939 273.841
59.5796 -88.2921 274.591
60.0771 -88.327 274.673
60.6834 -88.396 274.998
61.2535 -88.613 275.548
61.8251 -88.7003 275.846
62.4582 -88.7808 276.23
63.1537 -89.074 277.12
63.7336 -89.1278 277.36
64.3403 -89.4199 278.095
64.9373 -89.4765 278.363
65.4234 -89.4818 278.355
65.9095 -89.4871 278.346
66.5015 -89.5544 278.622
67.0905 -89.7689 279.168
67.6297 -89.8602 279.401
68.2463 -89.9103 279.678
68.8807 -89.9595 279.979
69.4695 -90.1112 280.397
69.993 -90.2226 280.635
70.5541 -90.2933 280.855
71.1527 -90.3234 281.058
71.7282 -90.3375 281.194
72.3182 -90.5675 281.745
72.8412 -90.6826 281.98
73.3644 -90.6797 281.999
73.9564 -90.7326 282.226
74.5342 -90.7464 282.358
75.1129 -90.8023 282.567
75.7086 -90.9898 283.035
76.2687 -91.0974 283.304
76.8961 -91.1471 283.57
77.4443 -91.1637 283.655
77.9356 -91.1672 283.63
78.5411 -91.1968 283.824
79.1472 -91.2264 284.017
79.6586 -91.2586 284.071
80.2649 -91.4824 284.602
80.864 -91.5828 284.904
81.4472 -91.596 285.028
82.0815 -91.6415 285.284
82.5741 -91.6444 285.253
83.0773 -91.8677 285.617
83.7053 -91.9554 285.931
84.3026 -91.9996 286.124
84.9142 -92.0288 286.31
85.5262 -92.0579 286.496
86.0198 -92.0603 286.461
86.7 -92.2251 286.974
87.2436 -92.3832 287.273
87.8532 -92.4248 287.47
88.4945 -92.47 287.718
89.0495 -92.4854 287.79
89.6268 -92.5297 287.941
90.2323 -92.6764 288.302
90.9019 -92.8612 288.816
91.4789 -92.8808 288.921
92.0971 -92.9095 289.099
92.693 -92.9091 289.196
93.2343 -92.9685 289.313
93.721 -93.0876 289.449
94.4156 -93.2619 289.968
95.0113 -93.2849 290.098
95.5341 -93.306 290.122
96.1819 -93.3545 290.365
96.8118 -93.3601 290.512
97.4019 -93.4154 290.682
97.9314 -93.4353 290.71
98.472 -93.5528 290.909
99.0406 -93.6405 291.098
99.7003 -93.7621 291.465
100.333 -93.7674 291.609
100.95 -93.8182 291.802
101.484 -93.8122 291.789
101.981 -93.8124 291.735
102.68 -93.9274 292.14
103.252 -94.0146 292.322
103.926 -94.1592 292.734
104.526 -94.2166 292.906
105.024 -94.2164 292.849
105.559 -94.2099 292.832
106.244 -94.278 293.133
106.779 -94.2715 293.114
107.378 -94.2826 293.209
107.905 -94.2986 293.215
108.497 -94.3324 293.333
109.044 -94.3986 293.439
109.748 -94.4887 293.791
110.313 -94.6432 294.054
110.941 -94.6831 294.224
111.414 -94.7574 294.241
111.997 -94.7141 294.225
112.598 -94.7249 294.314
113.134 -94.7177 294.289
113.759 -94.7674 294.467
114.361 -94.778 294.554
115.001 -94.8415 294.768
115.641 -94.9048 294.982
116.165 -95.0488 295.162
116.806 -95.1121 295.374
117.42 -95.1463 295.507
117.946 -95.1736 295.513
118.549 -95.1839 295.596
119.178 -95.2331 295.766
119.714 -95.2253 295.734
120.382 -95.2684 295.943
120.958 -95.2496 295.946
121.444 -95.2825 295.907
121.98 -95.2746 295.873
122.645 -95.33 296.093
123.284 -95.4723 296.403
123.781 -95.47 296.325
124.497 -95.6506 296.783
125.088 -95.6673 296.85
125.585 -95.6648 296.77
126.223 -95.691 296.907
126.862 -95.7171 297.044
127.501 -95.7432 297.18
128.14 -95.7692 297.316
128.747 -95.7788 297.386
129.392 -95.8501 297.59
129.95 -95.9626 297.742
130.464 -96.0318 297.778
131.005 -96.0719 297.807
131.651 -96.143 298.007
132.549 -96.2099 298.507
-27.2548 -84.4806 254.438
-26.8666 -84.6046 254.785
-26.3883 -84.5367 254.641
-25.9324 -84.5577 254.775
-25.4236 -84.4332 254.5
-25.0464 -84.5139 254.648
-24.6547 -84.5352 254.609
-24.2153 -84.6047 254.878
-23.6005 -84.2882 254.175
-23.1208 -84.308 254.366
-22.6494 -84.2299 254.173
-22.1971 -84.2404 254.256
-21.7446 -84.2509 254.339
-21.292 -84.2614 254.421
-20.7134 -84.1856 254.519
-20.2674 -84.2907 254.924
-19.7936 -84.2455 254.858
-19.2444 -84.1382 254.765
-18.8792 -84.3066 255.182
-18.4017 -84.2504 255.086
-17.9478 -84.261 255.167
-17.4937 -84.2717 255.248
-17.013 -84.328 255.555
-16.5472 -84.4535 256.063
-16.0655 -84.4542 256.174
-15.6098 -84.4649 256.253
-15.1539 -84.4756 256.332
-14.6978 -84.4863 256.411
-14.2415 -84.497 256.489
-13.7317 -84.5119 256.713
-13.207 -84.5576 257.077
-12.7466 -84.539 257.064
-12.2924 -84.5792 257.232
-11.8348 -84.59 257.309
-11.4068 -84.6458 257.462
-10.9217 -84.6409 257.552
-10.5384 -84.7788 257.864
-9.96641 -84.7149 257.968
-9.4948 -84.8403 258.448
-9.03511 -84.851 258.522
-8.57527 -84.8618 258.596
-8.11525 -84.8725 258.67
-7.65507 -84.8832 258.742
-7.19473 -84.894 258.815
-6.70721 -85.0251 259.336
-6.18817 -85.0674 259.645
-5.72643 -85.0781 259.716
-5.29247 -85.1336 259.862
-4.83028 -85.1443 259.932
-4.34029 -85.1102 259.927
-3.87794 -85.1208 259.997
-3.41543 -85.1315 260.066
-2.91155 -85.0312 259.887
-2.44916 -85.0418 259.956
-1.91935 -85.0204 260.081
-1.34893 -84.9938 260.283
-0.859386 -84.9601 260.277
-0.39648 -84.9709 260.344
0.0665738 -84.9817 260.411
0.529775 -84.9924 260.478
0.993122 -85.0032 260.544
1.45661 -85.0139 260.61
1.92025 -85.0246 260.675
2.38402 -85.0353 260.74
2.90737 -85.0515 260.954
3.45103 -85.0695 261.217
3.78108 -85.155 261.199
4.30041 -85.0835 261.145
4.77594 -85.1097 261.277
5.31007 -85.1123 261.469
5.82839 -85.0328 261.389
6.29333 -85.0435 261.45
6.7326 -85.1294 261.67
7.17119 -85.1547 261.713
7.66768 -85.1177 261.706
8.16116 -85.0515 261.61
8.62661 -85.0621 261.67
9.11953 -84.9962 261.574
9.67949 -84.986 261.778
10.1884 -84.973 261.864
10.6638 -85.0032 261.996
11.1574 -85.005 262.089
11.6236 -85.0156 262.146
12.0898 -85.0262 262.202
12.5562 -85.0367 262.259
13.0227 -85.0473 262.314
13.5171 -85.049 262.404
14.0323 -85.0899 262.642
14.5481 -85.1307 262.88
15.0387 -85.1035 262.881
15.5061 -85.114 262.934
15.9786 -85.1534 263.074
16.4463 -85.1637 263.126
16.9142 -85.1741 263.178
17.3821 -85.1844 263.229
17.8557 -85.2236 263.366
18.3465 -85.1964 263.365
18.9051 -85.2481 263.707
19.3738 -85.2583 263.756
19.8824 -85.2796 263.914
20.3515 -85.2898 263.962
20.8206 -85.2999 264.009
21.2898 -85.31 264.056
21.7591 -85.3201 264.102
22.2568 -85.3217 264.184
22.7791 -85.3623 264.412
23.2082 -85.3612 264.347
23.7597 -85.3934 264.61
24.2423 -85.4228 264.727
24.7411 -85.4244 264.806
25.2114 -85.4343 264.849
25.7015 -85.4013 264.824
26.1718 -85.4111 264.866
26.6854 -85.2864 264.663
27.1298 -85.3236 264.72
27.6696 -85.3041 264.825
28.1066 -85.3792 264.958
28.5904 -85.2549 264.701
29.1862 -85.2662 264.987
29.6856 -85.2678 265.062
30.1562 -85.2775 265.1
30.6269 -85.2872 265.137
31.0976 -85.2968 265.175
31.5683 -85.3065 265.211
32.0391 -85.316 265.247
32.51 -85.3255 265.283
32.9809 -85.335 265.318
33.4697 -85.3022 265.288
34.0052 -85.2192 265.229
34.5339 -85.3041 265.545
35.4627 -85.2331 265.38
36.0406 -85.1407 265.38
36.5115 -85.1501 265.412
36.9824 -85.1595 265.443
37.4533 -85.1688 265.474
37.9243 -85.1781 265.505
38.4249 -85.1795 265.571
38.8988 -85.2815 265.813
39.3827 -85.2171 265.701
39.854 -85.2262 265.729
40.4163 -85.2581 265.973
40.9038 -85.2864 266.071
41.4053 -85.2876 266.134
41.877 -85.2966 266.16
42.3488 -85.3055 266.186
42.8206 -85.3144 266.211
43.3668 -85.3307 266.385
43.9037 -85.3664 266.582
44.4226 -85.3866 266.713
44.895 -85.3954 266.736
45.3976 -85.3963 266.795
45.998 -85.4664 267.173
46.5012 -85.4673 267.231
46.9741 -85.4759 267.251
47.4321 -85.5259 267.332
47.9208 -85.5869 267.489
48.4793 -85.6721 267.817
49.0442 -85.7346 268.106
49.5181 -85.7429 268.123
50.0666 -85.8616 268.497
50.6407 -85.9186 268.785
51.1155 -85.9266 268.8
51.6768 -86.0673 269.234
52.2464 -86.1351 269.532
52.7853 -86.2698 269.911
53.3814 -86.3434 270.26
53.9086 -86.4511 270.559
54.4824 -86.5344 270.886
54.9854 -86.705 271.267
55.5492 -86.7514 271.498
56.1078 -86.8708 271.864
56.6311 -86.9628 272.115
57.2473 -87.1287 272.665
57.779 -87.2405 272.964
58.4062 -87.4472 273.607
59.0045 -87.5064 273.908
59.5736 -87.6505 274.325
60.084 -87.7328 274.522
60.7085 -87.8989 275.067
61.3283 -87.9969 275.47
61.9056 -88.0995 275.809
62.4909 -88.3025 276.352
63.1491 -88.4797 276.961
63.757 -88.656 277.483
64.3662 -88.765 277.875
64.9404 -88.8972 278.252
65.4149 -89.0164 278.442
65.9011 -89.0217 278.433
66.52 -89.095 278.764
67.0761 -89.1239 278.91
67.6362 -89.1891 279.129
68.2433 -89.3235 279.55
68.8409 -89.4237 279.89
69.4525 -89.5385 280.277
69.9642 -89.6335 280.467
70.5628 -89.7156 280.769
71.1568 -89.8141 281.091
71.7213 -89.8697 281.287
72.3336 -89.9571 281.614
72.8343 -90.067 281.806
73.4099 -90.0842 281.944
74.0231 -90.1785 282.279
74.528 -90.2776 282.454
75.1168 -90.3224 282.658
75.7273 -90.4506 283.044
76.3398 -90.5136 283.314
76.9312 -90.595 283.583
77.4492 -90.6523 283.695
77.9642 -90.6904 283.768
78.5933 -90.7397 284.032
79.1423 -90.7562 284.116
79.6699 -90.8114 284.235
80.3029 -90.9242 284.613
80.8538 -90.965 284.739
81.4207 -91.0737 285.006
82.0774 -91.1702 285.385
82.6046 -91.1663 285.394
83.1681 -91.254 285.615
83.7524 -91.3969 285.96
84.362 -91.3966 286.095
84.9415 -91.5231 286.401
85.5579 -91.5787 286.639
86.1359 -91.6144 286.785
86.7706 -91.6722 287.05
87.3247 -91.8082 287.328
87.9211 -91.9594 287.692
88.5275 -91.9898 287.865
89.1684 -92.0386 288.117
89.724 -92.0539 288.188
90.3298 -92.1342 288.439
90.959 -92.3095 288.881
91.4862 -92.3649 288.974
92.1098 -92.4198 289.203
92.7149 -92.4632 289.386
93.2108 -92.4647 289.343
93.7879 -92.5686 289.582
94.4644 -92.668 289.955
95.0562 -92.6835 290.068
95.6794 -92.819 290.42
96.2182 -92.8721 290.517
96.8683 -92.9166 290.756
97.4392 -92.8996 290.782
97.9834 -92.9583 290.893
98.5279 -93.017 291.003
99.0967 -93.1045 291.192
99.7335 -93.1658 291.433
100.347 -93.2321 291.648
100.988 -93.3346 291.957
101.486 -93.335 291.904
102.05 -93.3735 292.003
102.701 -93.4302 292.249
103.241 -93.5037 292.368
103.884 -93.5489 292.582
104.509 -93.5924 292.768
105.007 -93.5924 292.711
105.632 -93.6357 292.894
106.259 -93.7644 293.212
106.775 -93.6806 293.048
107.412 -93.8206 293.393
108.016 -93.8191 293.474
108.502 -93.8538 293.452
109.184 -93.9082 293.721
109.784 -94.0046 293.944
110.306 -94.0141 293.93
110.952 -94.0745 294.157
111.505 -94.015 294.077
112.013 -94.1439 294.221
112.594 -94.1332 294.253
113.189 -94.167 294.368
113.832 -94.3055 294.701
114.367 -94.2983 294.675
115.001 -94.3253 294.827
115.629 -94.3929 295.032
116.143 -94.4629 295.09
116.795 -94.5071 295.289
117.428 -94.5496 295.458
117.925 -94.5481 295.387
118.561 -94.5747 295.535
119.212 -94.6344 295.751
119.776 -94.6167 295.741
120.389 -94.7386 295.995
121 -94.7569 296.095
121.492 -94.7956 296.073
122.028 -94.7877 296.038
122.669 -94.8633 296.256
123.324 -94.9081 296.448
123.935 -94.9882 296.632
124.519 -95.0608 296.771
125.067 -95.0411 296.731
125.582 -95.0195 296.647
126.249 -95.1113 296.914
126.84 -95.0909 296.927
127.517 -95.2206 297.256
128.152 -95.2869 297.444
128.758 -95.2964 297.514
129.427 -95.379 297.764
130.041 -95.3966 297.853
130.493 -95.621 298.028
131.084 -95.4883 297.879
131.722 -95.5476 298.052
132.481 -95.6056 298.372
-26.8348 -84.1227 254.807
-26.3597 -84.0444 254.613
-25.9146 -84.0843 254.792
-25.4546 -84.0652 254.784
-24.9054 -83.9169 254.526
-24.3914 -83.8146 254.351
-23.8852 -83.6913 254.078
-23.4807 -83.7809 254.333
-22.6257 -83.7288 254.099
-22.0653 -83.5808 253.884
-21.6214 -83.6619 254.206
-21.0017 -83.4986 254.093
-20.5816 -83.5488 254.238
-20.1034 -83.5494 254.353
-19.6511 -83.5602 254.436
-19.1986 -83.571 254.519
-18.7781 -83.627 254.681
-18.2669 -83.5825 254.715
-17.8834 -83.6817 254.933
-17.3914 -83.6434 254.939
-16.9048 -83.7058 255.286
-16.3936 -83.7187 255.52
-15.9611 -83.796 255.777
-15.5062 -83.8068 255.857
-15.0512 -83.8177 255.937
-14.5959 -83.8285 256.017
-14.1711 -83.8843 256.173
-13.6368 -83.9202 256.533
-13.1685 -83.9896 256.841
-12.7118 -84.0004 256.919
-12.2746 -84.0777 257.172
-11.8471 -84.1335 257.327
-11.3894 -84.1442 257.403
-10.8772 -84.1593 257.627
-10.4112 -84.1855 257.773
-9.91666 -84.2257 258.034
-9.43131 -84.2269 258.142
-8.97228 -84.2377 258.217
-8.51307 -84.2486 258.291
-8.02709 -84.2498 258.398
-7.59585 -84.2995 258.53
-7.0787 -84.2856 258.661
-6.57393 -84.3766 259.098
-6.11327 -84.3875 259.17
-5.65244 -84.3983 259.243
-5.23485 -84.5201 259.563
-4.77327 -84.5309 259.635
-4.24262 -84.4389 259.544
-3.81484 -84.4747 259.614
-3.28564 -84.44 259.7
-2.79028 -84.439 259.811
-2.36171 -84.4397 259.772
-1.82571 -84.4905 260.135
-1.33622 -84.492 260.238
-0.873494 -84.5028 260.306
-0.410615 -84.5136 260.374
0.0524132 -84.5245 260.441
0.51559 -84.5352 260.508
0.978913 -84.546 260.575
1.44238 -84.5568 260.641
1.93311 -84.5583 260.741
2.37336 -84.6657 261.04
2.89301 -84.5943 260.986
3.46348 -84.5972 261.267
3.96346 -84.4981 261.087
4.36579 -84.6336 261.378
4.8623 -84.5966 261.373
5.32711 -84.6073 261.435
5.85057 -84.4646 261.184
6.3195 -84.4427 261.162
6.78403 -84.4534 261.224
7.28253 -84.5267 261.538
7.68131 -84.5841 261.586
8.21294 -84.5482 261.659
8.62851 -84.627 261.803
9.25184 -84.5144 261.859
9.74504 -84.5163 261.953
10.2108 -84.527 262.012
10.6767 -84.5377 262.07
11.1428 -84.5483 262.128
11.6089 -84.5589 262.185
12.1029 -84.5607 262.277
12.5793 -84.5908 262.408
13.1217 -84.6228 262.683
13.5989 -84.6528 262.813
14.0939 -84.6546 262.903
14.5612 -84.6652 262.957
15.0287 -84.6757 263.011
15.4963 -84.6861 263.065
15.9639 -84.6966 263.118
16.4317 -84.707 263.17
16.9641 -84.7235 263.372
17.4849 -84.7602 263.602
17.9871 -84.7526 263.675
18.4331 -84.8004 263.777
18.93 -84.8021 263.862
19.3989 -84.8124 263.911
19.8678 -84.8226 263.96
20.3369 -84.8328 264.008
20.8344 -84.8345 264.092
21.3059 -84.821 264.083
21.8515 -84.8576 264.351
22.3693 -84.8886 264.548
22.8663 -84.8522 264.53
23.3362 -84.8946 264.657
23.8232 -84.8311 264.551
24.2931 -84.8412 264.595
24.763 -84.8512 264.639
25.2612 -84.8001 264.587
25.7242 -84.7626 264.499
26.2203 -84.7264 264.479
26.8205 -84.7603 264.836
27.3116 -84.7334 264.829
27.7898 -84.7719 264.955
28.2602 -84.7819 264.996
28.7306 -84.7918 265.036
29.2011 -84.8016 265.076
29.6717 -84.8114 265.115
30.1423 -84.8212 265.153
30.613 -84.8309 265.191
31.1022 -84.7983 265.163
31.5729 -84.808 265.2
32.0754 -84.7684 265.181
32.6051 -84.7151 265.182
33.1228 -84.7294 265.318
33.664 -84.6088 265.182
34.1051 -84.6887 265.325
34.6149 -84.6565 265.336
35.0857 -84.6661 265.37
35.5566 -84.6756 265.404
36.0275 -84.6851 265.437
36.4984 -84.6946 265.469
36.9693 -84.704 265.501
37.4404 -84.7134 265.532
37.941 -84.7148 265.599
38.5175 -84.7658 265.917
39.0233 -84.7581 265.972
39.4605 -84.7843 265.976
39.9478 -84.8126 266.076
40.4493 -84.8139 266.141
40.9373 -84.7813 266.105
41.4089 -84.7904 266.132
41.8891 -84.7278 266.016
42.3524 -84.8084 266.184
42.8479 -84.7551 266.117
43.4159 -84.7951 266.382
43.9538 -84.8806 266.69
44.4261 -84.8894 266.714
44.8985 -84.8982 266.737
45.452 -84.9133 266.917
46.0165 -85.0027 267.274
46.4895 -85.0114 267.295
46.9625 -85.02 267.316
47.4355 -85.0286 267.336
47.9848 -85.0447 267.505
48.5425 -85.0991 267.768
49.0466 -85.0998 267.823
49.5507 -85.1006 267.878
50.0764 -85.3057 268.395
50.644 -85.4202 268.793
51.142 -85.4289 268.849
51.6969 -85.5162 269.164
52.25 -85.532 269.328
52.8518 -85.6773 269.838
53.3846 -85.8438 270.271
53.9261 -85.9008 270.492
54.5226 -85.9473 270.785
54.9829 -86.0675 270.993
55.5186 -86.2111 271.374
56.1314 -86.3078 271.789
56.6965 -86.354 272.019
57.2407 -86.4979 272.407
57.8288 -86.6762 272.935
58.3942 -86.7632 273.24
59.0019 -86.9355 273.782
59.5784 -87.0757 274.206
60.0914 -87.0749 274.245
60.7391 -87.283 274.914
61.3113 -87.4266 275.329
61.8718 -87.4975 275.581
62.4597 -87.735 276.199
63.1569 -87.8831 276.818
63.7542 -88.0448 277.297
64.3003 -88.1239 277.531
64.9306 -88.2519 277.993
65.4048 -88.371 278.184
65.8906 -88.3765 278.175
66.5039 -88.4765 278.55
67.0799 -88.6164 278.939
67.5992 -88.6145 278.967
68.2365 -88.6838 279.317
68.8877 -88.8123 279.796
69.4586 -88.8832 280.039
69.9817 -88.9942 280.278
70.5656 -89.0804 280.566
71.1585 -89.1231 280.785
71.7428 -89.2549 281.154
72.3459 -89.3339 281.453
72.8274 -89.4517 281.631
73.452 -89.4973 281.898
74.0184 -89.5526 282.091
74.5511 -89.6283 282.268
75.1385 -89.7283 282.571
75.7277 -89.8676 282.946
76.3315 -89.8971 283.144
76.9253 -89.968 283.399
77.5099 -89.9896 283.55
78.0805 -90.1407 283.91
78.6557 -90.2408 284.184
79.2273 -90.2955 284.369
79.8019 -90.3278 284.519
80.3517 -90.3442 284.602
80.9345 -90.3574 284.728
81.5646 -90.5158 285.178
82.0669 -90.5522 285.222
82.6734 -90.6944 285.604
83.2936 -90.7567 285.866
83.8214 -90.7528 285.874
84.4237 -90.8046 286.089
85.0745 -90.933 286.505
85.665 -91.1551 286.991
86.2522 -91.1679 287.11
86.8397 -91.1806 287.229
87.4452 -91.2322 287.44
87.9742 -91.3409 287.634
88.5843 -91.4553 287.955
89.227 -91.5778 288.334
89.8168 -91.5902 288.45
90.4607 -91.6349 288.697
90.9563 -91.6369 288.657
91.5634 -91.7169 288.907
92.2165 -91.8733 289.349
92.7225 -91.9468 289.439
93.2459 -91.9829 289.492
93.8574 -92.034 289.695
94.4499 -92.0461 289.805
95.0705 -92.0743 289.981
95.6835 -92.1436 290.212
96.2612 -92.2194 290.402
96.901 -92.4131 290.87
97.4636 -92.452 290.975
98.0586 -92.4638 291.081
98.6472 -92.4944 291.208
99.1714 -92.5153 291.228
99.8182 -92.5516 291.444
100.42 -92.6042 291.621
100.963 -92.6382 291.685
101.482 -92.7449 291.832
102.058 -92.8026 291.978
102.703 -92.9193 292.312
103.238 -92.9132 292.298
103.865 -92.9408 292.464
104.492 -92.9684 292.628
104.99 -92.9686 292.572
105.599 -93.0157 292.741
106.239 -93.0644 292.953
106.736 -93.0644 292.895
107.396 -93.1806 293.236
108.038 -93.2568 293.488
108.56 -93.2667 293.476
109.24 -93.4097 293.88
109.805 -93.4231 293.929
110.34 -93.4164 293.907
110.964 -93.4661 294.089
111.539 -93.4481 294.102
112.063 -93.4763 294.117
112.598 -93.4695 294.093
113.232 -93.5458 294.325
113.858 -93.6236 294.546
114.388 -93.7167 294.663
115.047 -93.771 294.891
115.63 -93.7602 294.92
116.145 -93.8302 294.979
116.773 -93.8975 295.182
117.408 -93.9241 295.332
117.905 -93.9228 295.261
118.54 -93.9494 295.41
119.176 -93.976 295.558
119.805 -94.0531 295.77
120.442 -94.0695 295.903
120.94 -94.0679 295.83
121.455 -94.1372 295.882
122.052 -94.1852 296.007
122.747 -94.3381 296.407
123.427 -94.3785 296.623
124.051 -94.4192 296.768
124.548 -94.4172 296.69
125.045 -94.4152 296.612
125.684 -94.4412 296.751
126.431 -94.479 297.044
126.961 -94.4932 297.028
127.589 -94.6199 297.294
128.113 -94.6277 297.259
128.842 -94.7567 297.652
129.448 -94.8155 297.79
130.07 -94.856 297.922
130.636 -94.8211 297.877
131.11 -94.8924 297.868
131.829 -94.9136 298.089
132.611 -94.9839 298.454
-25.4642 -83.6082 254.789
-24.3737 -83.3422 254.368
-23.9218 -83.3527 254.454
-23.463 -83.334 254.446
-20.5829 -83.1711 254.553
-20.1193 -83.1235 254.453
-19.6615 -83.1051 254.445
-19.209 -83.1158 254.528
-18.7564 -83.1266 254.611
-18.2776 -83.1273 254.725
-17.8652 -83.2357 255.051
-17.3103 -83.1869 255.182
-16.8634 -83.2415 255.401
-16.3777 -83.2472 255.545
-15.9192 -83.229 255.535
-15.4689 -83.269 255.708
-15.0222 -83.3382 255.971
-14.5671 -83.3491 256.051
-14.1117 -83.36 256.131
-13.5958 -83.3899 256.427
-12.7644 -83.5676 256.916
-12.3138 -83.6368 257.176
-11.8565 -83.6476 257.253
-11.399 -83.6585 257.331
-10.8898 -83.7026 257.646
-10.3591 -83.719 257.919
-9.90303 -83.7591 258.087
-9.44422 -83.77 258.163
-8.98523 -83.7808 258.238
-8.52608 -83.7917 258.313
-8.03494 -83.8124 258.497
-7.57533 -83.8232 258.571
-7.0514 -83.8539 258.863
-6.58563 -83.8843 259.013
-6.09853 -83.8856 259.119
-5.63789 -83.8965 259.192
-5.1771 -83.9074 259.264
-4.66413 -83.9517 259.565
-4.12321 -83.9691 259.845
-3.79558 -84.0274 259.75
-3.22638 -84.0005 259.954
-2.73716 -83.9728 259.968
-2.27523 -84.0129 260.128
-1.81284 -84.0237 260.198
-1.35029 -84.0346 260.267
-0.887592 -84.0455 260.335
-0.42474 -84.0563 260.404
0.0382618 -84.0671 260.471
0.501414 -84.0779 260.539
0.964713 -84.0887 260.606
1.45523 -84.0903 260.706
2.00334 -84.1606 261.143
2.49104 -84.075 260.974
2.92411 -84.1626 261.198
3.4221 -84.1547 261.284
3.88662 -84.1655 261.348
4.35128 -84.1762 261.412
4.81608 -84.187 261.475
5.28101 -84.1977 261.538
5.74179 -84.1503 261.423
6.89268 -84.0095 261.568
7.40337 -84.0053 261.687
7.8658 -83.9873 261.66
8.3338 -84.027 261.81
8.79921 -84.0378 261.871
9.26474 -84.0486 261.931
9.73041 -84.0594 261.991
10.1962 -84.0701 262.05
10.6621 -84.0808 262.109
11.1318 -84.1204 262.255
11.5943 -84.1022 262.225
12.1233 -84.1186 262.432
12.65 -84.1746 262.742
13.1448 -84.1764 262.834
13.6119 -84.187 262.89
14.0792 -84.1976 262.945
14.5465 -84.2082 263
15.014 -84.2187 263.054
15.4816 -84.2292 263.107
15.9493 -84.2396 263.161
16.4171 -84.2501 263.213
16.9762 -84.2973 263.554
17.5093 -84.3139 263.756
17.9779 -84.3243 263.807
18.4466 -84.3346 263.858
18.9154 -84.345 263.908
19.3843 -84.3553 263.958
19.8815 -84.357 264.042
20.3223 -84.3758 264.055
20.8654 -84.379 264.236
21.4152 -84.411 264.503
21.8719 -84.3638 264.377
22.3415 -84.374 264.424
22.8111 -84.3842 264.47
23.2809 -84.3943 264.515
24.3419 -84.2866 264.527
25.221 -84.3707 264.654
26.3046 -84.3489 264.92
26.8428 -84.3238 265.01
27.3053 -84.3053 264.966
27.7757 -84.3153 265.008
28.2461 -84.3253 265.049
28.7166 -84.3352 265.089
29.1872 -84.3451 265.129
29.6578 -84.3549 265.168
30.1575 -84.3565 265.243
31.0997 -84.3527 265.264
31.5894 -84.3802 265.38
32.7465 -84.2466 265.503
33.2175 -84.2564 265.539
33.6886 -84.2661 265.575
34.1597 -84.2758 265.61
34.6308 -84.2854 265.645
35.102 -84.295 265.679
35.5733 -84.3046 265.712
36.0244 -84.2576 265.577
36.5147 -84.2309 265.562
36.9666 -84.2765 265.641
37.4721 -84.2689 265.698
37.9882 -84.2894 265.837
38.5496 -84.3211 266.085
39.0105 -84.3023 266.031
39.4931 -84.3397 266.144
39.9648 -84.3489 266.172
40.4367 -84.3581 266.2
40.8972 -84.3391 266.145
41.3462 -84.2921 266.006
41.8751 -84.2394 266.001
42.9605 -84.267 266.331
43.4751 -84.3115 266.511
43.9472 -84.3205 266.536
44.4193 -84.3295 266.56
44.8813 -84.4111 266.722
45.449 -84.5029 267.094
45.9922 -84.5186 267.256
46.4777 -84.5553 267.359
46.9508 -84.564 267.38
47.4543 -84.5648 267.437
47.9925 -84.6038 267.636
48.5616 -84.6351 267.871
49.0352 -84.6436 267.889
49.6053 -84.6747 268.123
50.1476 -84.7365 268.371
50.6342 -84.8593 268.647
51.1217 -84.9819 268.922
51.7329 -85.0741 269.346
52.2392 -85.0746 269.397
52.805 -85.1143 269.631
53.3174 -85.3425 270.157
53.9155 -85.4423 270.564
54.5121 -85.4886 270.857
54.9894 -85.4962 270.867
55.5232 -85.6403 271.248
56.1212 -85.8482 271.863
56.6796 -85.8635 272.021
57.2488 -85.9172 272.273
57.8218 -86.174 272.934
58.4216 -86.2616 273.299
59.004 -86.2923 273.52
59.5733 -86.541 274.149
60.1531 -86.6443 274.504
60.738 -86.6749 274.723
61.3636 -86.9358 275.458
61.8946 -87.027 275.701
62.4449 -87.098 275.935
63.1398 -87.388 276.829
63.7516 -87.4339 277.109
64.3131 -87.6155 277.568
64.9221 -87.7866 278.08
65.4078 -87.7923 278.073
65.8935 -87.798 278.065
66.5077 -87.8855 278.419
67.0737 -88.0772 278.892
67.6403 -88.1375 279.114
68.2287 -88.2174 279.406
68.8572 -88.2401 279.652
69.4533 -88.27 279.859
69.9399 -88.3482 279.981
70.5585 -88.6129 280.658
71.1333 -88.6269 280.796
71.7557 -88.6724 281.067
72.3867 -88.7718 281.448
72.8541 -88.9761 281.764
73.4997 -89.045 282.107
74.023 -89.0424 282.128
74.5463 -89.0397 282.147
75.1167 -89.2223 282.576
75.7027 -89.3693 282.961
76.3259 -89.4273 283.241
76.9303 -89.4566 283.439
77.5353 -89.486 283.635
78.1998 -89.601 284.075
78.6207 -89.7827 284.259
79.2475 -89.8405 284.535
79.8549 -89.8697 284.729
80.3472 -89.8732 284.702
80.9806 -89.9182 284.961
81.564 -89.9313 285.087
82.1796 -90.1064 285.544
82.7965 -90.2815 286
83.29 -90.2845 285.969
83.8753 -90.2974 286.092
84.5126 -90.3422 286.346
85.1171 -90.4415 286.645
85.7548 -90.692 287.25
86.2494 -90.6946 287.215
86.8634 -90.7232 287.401
87.4778 -90.7518 287.586
87.9943 -90.783 287.63
88.5982 -90.9288 287.996
89.2252 -91.1033 288.442
89.842 -91.1318 288.624
90.4593 -91.1602 288.805
91.0501 -91.1725 288.92
91.6404 -91.2767 289.187
92.2041 -91.3648 289.387
92.6906 -91.4837 289.525
93.3057 -91.5245 289.717
93.9533 -91.5688 289.961
94.4856 -91.5637 289.956
95.0983 -91.6145 290.158
95.6917 -91.6265 290.268
96.3086 -91.7247 290.55
96.9435 -91.9453 291.056
97.4644 -91.9751 291.088
98.0879 -92.003 291.26
98.7118 -92.0309 291.432
99.2091 -92.0318 291.382
99.8336 -92.0596 291.553
100.483 -92.116 291.803
101.029 -92.1744 291.911
101.6 -92.2613 292.098
102.171 -92.3481 292.284
102.743 -92.4348 292.468
103.277 -92.4288 292.454
103.96 -92.4962 292.76
104.495 -92.4901 292.745
105.018 -92.5191 292.768
105.65 -92.5339 292.918
106.287 -92.5387 293.057
106.773 -92.5739 293.037
107.402 -92.6011 293.199
108.031 -92.6284 293.361
108.682 -92.8471 293.846
109.285 -92.9152 294.031
109.81 -92.9436 294.048
110.411 -92.9544 294.141
111.035 -93.0039 294.324
111.571 -92.9972 294.301
112.069 -92.9967 294.237
112.67 -93.0074 294.328
113.296 -93.0567 294.507
113.831 -93.0498 294.482
114.409 -93.135 294.652
115.043 -93.1618 294.805
115.567 -93.3053 294.987
116.201 -93.3319 295.139
116.826 -93.426 295.378
117.415 -93.4433 295.455
117.952 -93.436 295.425
118.58 -93.4848 295.598
119.223 -93.4889 295.722
119.852 -93.5376 295.893
120.456 -93.5477 295.975
120.982 -93.5749 295.979
121.479 -93.5735 295.905
122.182 -93.7048 296.288
122.953 -93.8838 296.823
123.535 -93.9103 296.894
124.061 -93.9371 296.894
124.558 -93.9351 296.816
125.126 -93.9471 296.847
125.796 -93.993 297.055
126.475 -94.0129 297.236
127.027 -93.953 297.142
127.572 -94.0426 297.252
128.196 -94.1201 297.442
128.98 -94.1738 297.797
129.367 -94.2868 297.739
130.104 -94.3899 298.102
130.648 -94.3379 298.007
131.194 -94.4269 298.11
131.842 -94.4302 298.219
132.624 -94.5001 298.585
-26.5121 -83.3345 255.049
-26.059 -83.3448 255.134
-25.4738 -83.1513 254.795
-24.9589 -83.0494 254.619
-24.3764 -82.8568 254.281
-23.9247 -82.8673 254.367
-23.4389 -82.8326 254.372
-22.8889 -82.6499 253.992
-22.4416 -82.6968 254.203
-21.9899 -82.7075 254.288
-21.5381 -82.7182 254.374
-21.0607 -82.6627 254.28
-20.5759 -82.6283 254.285
-20.1239 -82.6391 254.369
-19.6718 -82.6499 254.454
-19.2195 -82.6607 254.537
-18.7669 -82.6715 254.621
-18.2627 -82.6855 254.85
-17.7311 -82.6426 254.943
-17.3212 -82.7315 255.193
-16.8385 -82.7516 255.384
-16.3845 -82.7625 255.466
-15.9304 -82.7734 255.548
-15.45 -82.7743 255.661
-15.0634 -82.8731 255.876
-14.6499 -82.9617 256.123
-14.0827 -82.8651 256.113
-13.5673 -82.9104 256.463
-13.1319 -82.9873 256.719
-12.6756 -82.9983 256.798
-12.2492 -83.0539 256.954
-11.7924 -83.0648 257.033
-11.3053 -83.0466 257.086
-10.8213 -83.1581 257.57
-10.2967 -83.1359 257.701
-9.83867 -83.1469 257.778
-9.38051 -83.1579 257.855
-8.92217 -83.1689 257.931
-8.46366 -83.1798 258.007
-8.00189 -83.3102 258.483
-7.52469 -83.3858 258.812
-6.99578 -83.329 258.832
-6.57242 -83.4175 259.07
-6.112 -83.4284 259.144
-5.65141 -83.4393 259.217
-5.15803 -83.46 259.399
-4.6642 -83.4808 259.581
-4.17116 -83.5453 259.899
-3.70935 -83.5563 259.97
-3.21347 -83.5335 260.015
-2.75143 -83.5444 260.086
-2.28923 -83.5554 260.156
-1.82687 -83.5663 260.226
-1.36435 -83.5772 260.296
-0.90168 -83.588 260.365
-0.438856 -83.5989 260.433
0.0505073 -83.5656 260.427
0.542938 -83.5013 260.334
1.00579 -83.5122 260.402
1.54818 -83.5611 260.766
2.07054 -83.5745 260.975
2.53433 -83.5855 261.041
2.99826 -83.5964 261.107
3.47049 -83.5729 261.089
3.93458 -83.5838 261.154
4.40667 -83.5605 261.136
4.86318 -83.6055 261.283
5.39429 -83.5694 261.359
5.81048 -83.6832 261.615
6.3491 -83.6473 261.705
6.89924 -83.5811 261.734
7.38875 -83.5483 261.724
7.85389 -83.5591 261.786
8.31917 -83.57 261.847
8.78458 -83.5808 261.908
9.25011 -83.5916 261.969
9.71578 -83.6024 262.029
10.1816 -83.6132 262.088
10.7097 -83.6294 262.298
11.1881 -83.6555 262.426
11.6545 -83.6662 262.484
12.1684 -83.7067 262.726
12.663 -83.7085 262.818
13.1301 -83.7192 262.875
13.5972 -83.7298 262.931
14.0645 -83.7404 262.987
14.5318 -83.751 263.042
14.9993 -83.7616 263.096
15.4669 -83.7721 263.15
15.9626 -83.7739 263.239
16.5485 -83.7839 263.539
17.0208 -83.8174 263.662
17.5162 -83.8135 263.732
17.9847 -83.8239 263.783
18.4533 -83.8344 263.834
18.922 -83.8447 263.885
19.3908 -83.8551 263.935
19.9589 -83.8303 264.097
20.5322 -83.7364 264.089
20.9538 -83.8754 264.374
21.4459 -83.8659 264.417
21.9154 -83.8762 264.465
22.388 -83.8528 264.432
22.8576 -83.8631 264.479
23.3273 -83.8733 264.525
23.8231 -83.8561 264.553
24.2929 -83.8663 264.598
24.8302 -83.9017 264.842
25.3743 -83.9237 265.063
25.8608 -83.8607 264.957
