# .PCD v0.7 - Point Cloud Data file format
VERSION 0.7
FIELDS x y z
SIZE 4 4 4
TYPE F F F
COUNT 1 1 1
WIDTH 1582
HEIGHT 1
VIEWPOINT 0 0 0 1 0 0 0
POINTS 1582
DATA ascii
-1.49729 -2.77616 18.1294
-1.46375 -2.77597 18.1138
-1.43025 -2.77579 18.098
-1.3968 -2.7756 18.0823
-1.36879 -2.7756801 18.0823
-1.34077 -2.7757599 18.0821
-1.3074 -2.7755699 18.066299
-1.27353 -2.7867601 18.106001
-1.24397 -2.78829 18.1091
-1.21365 -2.79054 18.1138
-1.1673501 -2.78016 18.0105
-1.12729 -2.77316 17.940599
-1.08593 -2.75911 17.830099
-1.05015 -2.7565701 17.7936
-1.01503 -2.7434001 17.7036
-0.97767198 -2.74016 17.6579
-0.94175297 -2.7272401 17.565399
-0.88278198 -2.7250099 17.539499
-0.84496599 -2.7131 17.444901
-0.80501097 -2.71067 17.393
-0.74331802 -2.6965101 17.2929
-0.70385897 -2.69873 17.2658
-0.67593199 -2.69503 17.241899
-0.60190201 -2.6959701 17.181999
-0.56350398 -2.69432 17.1355
-7.8350701 -2.75563 20.6362
-7.7934899 -2.7574799 20.6315
-7.73982 -2.7553999 20.598301
-7.7031102 -2.7583799 20.603201
-7.6536102 -2.7553699 20.5718
-7.6066599 -2.75647 20.557301
-7.5636201 -2.7588799 20.552
-7.5216498 -2.7588799 20.540001
-7.4776402 -2.7576101 20.521
-7.4382801 -2.7597001 20.519199
-7.3923302 -2.76143 20.5075
-7.3512502 -2.75878 20.4874
-7.30931 -2.7636399 20.491301
-7.2683601 -2.7624199 20.476
-7.22616 -2.7660501 20.4753
-7.1873798 -2.7615299 20.4515
-7.1454902 -2.7681701 20.4613
-7.1003399 -2.7691 20.4473
-7.0641499 -2.7697401 20.4443
-7.0256901 -2.7697899 20.436199
-6.9872599 -2.76984 20.428101
-6.9538698 -2.77637 20.4489
-6.91576 -2.7774301 20.444599
-6.8810401 -2.7820799 20.4571
-6.8441501 -2.7850299 20.461
-6.7950401 -2.77986 20.419901
-6.7500501 -2.7767401 20.391399
-6.7080598 -2.7800701 20.3892
-6.6732702 -2.7847099 20.401501
-6.6192398 -2.7813499 20.3591
-6.5752001 -2.7790101 20.334101
-6.5411901 -2.7843201 20.349701
-6.5029001 -2.7843399 20.3409
-6.4540701 -2.7844701 20.3172
-6.4094601 -2.7839 20.2971
-6.3712502 -2.78392 20.288099
-6.3204498 -2.7835801 20.259501
-6.28229 -2.7835901 20.250299
-6.2334199 -2.78863 20.2428
-6.1774502 -2.7815499 20.1824
-6.1012902 -2.7618001 20.0473
-6.0257101 -2.7512 19.944
-5.9592199 -2.7430799 19.862301
-5.9061298 -2.7368 19.8071
-5.8556099 -2.7349701 19.770901
-5.8084502 -2.7342701 19.7435
-5.7473898 -2.72632 19.669001
-5.6965199 -2.7220399 19.6227
-5.6420598 -2.71856 19.5732
-5.5949202 -2.7177401 19.5443
-5.5481801 -2.7163999 19.513901
-5.50419 -2.71331 19.481701
-5.4538102 -2.71225 19.445999
-5.4134998 -2.70996 19.422199
-5.3710198 -2.7061501 19.3894
-5.3243299 -2.7058301 19.361601
-5.2839999 -2.70209 19.332199
-5.2369199 -2.7031901 19.3081
-5.1935 -2.70367 19.288
-5.1582899 -2.7014999 19.2722
-5.1100101 -2.7011199 19.2404
-5.07126 -2.7028 19.231899
-5.03304 -2.7009001 19.211599
-4.9965301 -2.70085 19.2006
-4.9600501 -2.7007999 19.189699
-4.9236002 -2.7007401 19.1786
-4.8744302 -2.70103 19.1464
-4.8373199 -2.7007401 19.133101
-4.8017201 -2.70524 19.1395
-4.7659998 -2.7037499 19.124201
-4.7248502 -2.7023399 19.099501
-4.6876898 -2.7077799 19.1063
-4.6564102 -2.7093201 19.1096
-4.6164298 -2.70696 19.0832
-4.5746899 -2.7062099 19.059099
-4.5362401 -2.70803 19.0502
-4.5004501 -2.71158 19.0525
-4.4638 -2.7076399 19.025801
-4.4243598 -2.70842 19.011
-4.3907299 -2.7088399 19.005501
-4.3544102 -2.7134099 19.010201
-4.3220301 -2.71345 19.0056
-4.28234 -2.7132499 18.986401
-4.25 -2.71329 18.981701
-4.2112799 -2.71191 18.9597
-4.1771598 -2.7167201 18.9692
-4.1404901 -2.71807 18.9611
-4.1041002 -2.71732 18.945499
-4.06847 -2.7200699 18.944401
-4.0338898 -2.7204199 18.936199
-3.9967599 -2.7198901 18.919701
-3.96784 -2.7222099 18.929899
-3.9348199 -2.72367 18.928801
-3.8996601 -2.72506 18.923201
-3.85864 -2.72697 18.9081
-3.8264201 -2.727 18.903
-3.7983999 -2.7308199 18.9207
-3.7609 -2.73066 18.904301
-3.7261901 -2.7330401 18.903099
-3.68681 -2.73159 18.8778
-3.6561899 -2.7341001 18.8853
-3.62059 -2.73686 18.8836
-3.58531 -2.73171 18.8517
-3.54936 -2.73664 18.8578
-3.51477 -2.74107 18.864599
-3.4792099 -2.7409501 18.851601
-3.44368 -2.74084 18.838499
-3.40924 -2.74261 18.834999
-3.34986 -2.7457099 18.8459
-3.3160801 -2.7483001 18.847099
-3.2781799 -2.7490101 18.832001
-3.24581 -2.7554901 18.851801
-3.21065 -2.7527399 18.8283
-3.1749599 -2.75525 18.8249
-3.14625 -2.7553799 18.8267
-3.1130099 -2.75757 18.827101
-3.0780201 -2.76019 18.8256
-3.04776 -2.76051 18.8248
-3.0118699 -2.7625899 18.819
-2.9765799 -2.76247 18.8053
-2.9412701 -2.7604699 18.7836
-2.90609 -2.7622099 18.7778
-2.87233 -2.7648001 18.7785
-2.83898 -2.7620699 18.7577
-2.80814 -2.76335 18.759199
-2.77301 -2.7682099 18.766399
-2.7400301 -2.7681601 18.7575
-2.7081101 -2.7693901 18.756399
-2.6730399 -2.7692599 18.7423
-2.638 -2.76912 18.728201
-2.6049299 -2.7683001 18.715401
-2.5710399 -2.7727201 18.7234
-2.5424399 -2.7709501 18.716499
-2.51053 -2.77282 18.7178
-2.4739599 -2.7779801 18.723
-2.4397099 -2.7785101 18.7132
-2.4112699 -2.78392 18.738199
-2.38254 -2.78404 18.739201
-2.3517699 -2.78634 18.745199
-2.31706 -2.78771 18.7379
-2.28409 -2.78385 18.711
-2.2431901 -2.7834301 18.680799
-2.19889 -2.7748799 18.605301
-2.16155 -2.76824 18.5546
-2.1157501 -2.76631 18.504499
-2.0760901 -2.76459 18.4697
-2.03953 -2.7581601 18.4205
-2.00401 -2.7562301 18.3943
-1.97119 -2.75142 18.361099
-1.93589 -2.75067 18.340401
-1.9018101 -2.75051 18.325199
-1.8677599 -2.75035 18.309999
-1.83376 -2.75019 18.294701
-1.79861 -2.75123 18.2822
-1.76402 -2.75054 18.2626
-1.7308 -2.75091 18.2514
-1.69815 -2.7495401 18.233299
-1.66434 -2.7493801 18.217899
-1.63243 -2.7485399 18.203899
-1.60048 -2.74545 18.178801
-1.5659699 -2.7490001 18.1791
-1.52956 -2.7487099 18.1556
-1.4978 -2.74787 18.141399
-1.4398201 -2.7486899 18.1399
-1.4050699 -2.7497301 18.126801
-1.37283 -2.7483499 18.108299
-1.3406399 -2.74698 18.0898
-1.31137 -2.74825 18.0923
-1.28111 -2.75049 18.096901
-1.25008 -2.7534499 18.1031
-1.21751 -2.7578599 18.1126
-1.18546 -2.75492 18.0861
-1.1345 -2.7468901 17.980499
-1.09711 -2.7327001 17.8799
-1.05773 -2.7309699 17.837299
-1.02748 -2.71754 17.759399
-0.98370498 -2.71451 17.6961
-0.95507401 -2.70594 17.6472
-0.88965702 -2.69999 17.583
-0.853939 -2.68854 17.4965
-0.820678 -2.6846199 17.4566
-0.76050198 -2.6839299 17.433599
-0.69448102 -2.67294 17.3361
-7.8252501 -2.7105401 20.5917
-7.7857099 -2.71556 20.6
-7.7354999 -2.7155499 20.5779
-7.6978502 -2.71784 20.5793
-7.6476498 -2.7158699 20.550301
-7.6032701 -2.7186401 20.5446
-7.5581799 -2.7179999 20.5263
-7.5120502 -2.71842 20.510099
-7.47191 -2.71877 20.5014
-7.4308901 -2.7175901 20.4863
-7.3887401 -2.72122 20.485901
-7.3474002 -2.72123 20.4743
-7.3070798 -2.72369 20.4722
-7.2666302 -2.7244 20.464001
-7.2266698 -2.7249601 20.455799
-7.18819 -2.7250299 20.447901
-7.1511002 -2.72877 20.4543
-7.1058302 -2.72928 20.438601
-7.0609999 -2.7322299 20.4317
-7.0222001 -2.7312901 20.4196
-6.9895701 -2.73979 20.448299
-6.9597702 -2.7400501 20.4527
-6.9157901 -2.7407 20.4389
-6.8758101 -2.7428401 20.4356
-6.8417902 -2.74968 20.4568
-6.7974 -2.7400401 20.406601
-6.7579899 -2.74226 20.4042
-6.7142801 -2.74049 20.381901
-6.6652002 -2.7397299 20.3554
-6.6268201 -2.7434399 20.359301
-6.5841799 -2.7412701 20.3368
-6.53793 -2.7458701 20.3325
-6.49933 -2.7446899 20.319
-6.45854 -2.7446499 20.306101
-6.4116201 -2.7421601 20.275801
-6.3680801 -2.7455399 20.2707
-6.3301601 -2.7465601 20.265499
-6.2902098 -2.74593 20.2514
-6.2400899 -2.7511499 20.2428
-6.1886902 -2.7495799 20.2082
-6.1048298 -2.7232499 20.0378
-6.0244598 -2.7134399 19.929399
-5.95645 -2.70629 19.848301
-5.90169 -2.70439 19.805201
-5.8565001 -2.7005701 19.770201
-5.8106799 -2.69384 19.7237
-5.7484198 -2.69081 19.664
-5.69347 -2.68802 19.6161
-5.6413398 -2.68402 19.568199
-5.5944901 -2.67836 19.522699
-5.5475502 -2.67629 19.4893
-5.50071 -2.6742201 19.455799
-5.4558101 -2.67399 19.4317
-5.41291 -2.67432 19.4125
-5.3642702 -2.67296 19.3778
-5.3195601 -2.67272 19.3533
-5.2816901 -2.66816 19.325001
-5.24089 -2.6707499 19.316601
-5.1943102 -2.66677 19.275299
-5.1521401 -2.6680801 19.2598
-5.1194 -2.6676099 19.254101
-5.0811701 -2.6647899 19.2304
-5.0324602 -2.6662099 19.203699
-4.9955401 -2.6663899 19.192801
-4.95611 -2.6672201 19.179701
-4.9134102 -2.66605 19.1535
-4.87432 -2.66399 19.1304
-4.83427 -2.6697199 19.1334
-4.79952 -2.67151 19.131599
-4.76159 -2.6696301 19.1108
-4.72435 -2.67062 19.1015
-4.6868 -2.6712501 19.0902
-4.6543102 -2.6713099 19.086
-4.6180701 -2.6712501 19.0744
-4.5706301 -2.6708701 19.041201
-4.5357399 -2.67013 19.0294
-4.5068998 -2.6745901 19.0476
-4.4677 -2.67136 19.0186
-4.4224701 -2.6705201 18.987101
-4.3878698 -2.6723001 18.984699
-4.3525801 -2.6754899 18.9862
-4.3175101 -2.6749101 18.9741
-4.2802801 -2.6796701 18.977699
-4.2455602 -2.67892 18.965401
-4.2103701 -2.6846499 18.9765
-4.1744099 -2.6845701 18.9643
-4.1384702 -2.6845 18.952101
-4.1061802 -2.68454 18.947201
-4.0667 -2.68435 18.927601
-4.03444 -2.6843801 18.9226
-3.99734 -2.6849899 18.9104
-3.9663899 -2.68434 18.905199
-3.9277999 -2.6877999 18.9007
-3.8965099 -2.6899199 18.905399
-3.8631499 -2.68663 18.885201
-3.8229201 -2.69366 18.8911
-3.7888899 -2.69276 18.878599
-3.75472 -2.6984401 18.8913
-3.71909 -2.69575 18.8685
-3.68559 -2.69906 18.873301
-3.6547 -2.6984 18.8678
-3.6190901 -2.6982999 18.8549
-3.5834999 -2.69821 18.8419
-3.5445001 -2.698 18.8214
-3.51243 -2.69802 18.815901
-3.47788 -2.70242 18.822599
-3.44277 -2.70298 18.812901
-3.4089899 -2.7088001 18.826799
-3.37975 -2.70891 18.827499
-3.3477399 -2.71102 18.830299
-3.3148501 -2.71257 18.8291
-3.2760601 -2.7123599 18.8081
-3.24402 -2.7123699 18.802299
-3.20894 -2.71595 18.804501
-3.17435 -2.71734 18.7988
-3.1431999 -2.72032 18.8069
-3.1131301 -2.71966 18.802401
-3.0790701 -2.7254 18.815701
-3.04619 -2.7269599 18.814199
-3.01089 -2.72685 18.800501
-2.97562 -2.7267301 18.786699
-2.9403901 -2.72662 18.7729
-2.90519 -2.7265 18.759001
-2.8745601 -2.7258101 18.752701
-2.8413701 -2.7265 18.7465
-2.8081901 -2.72719 18.740299
-2.77438 -2.7276101 18.7314
-2.73822 -2.7311699 18.7306
-2.7073801 -2.73368 18.737301
-2.6719201 -2.7364299 18.734699
-2.6366401 -2.73564 18.716999
-2.60533 -2.7390001 18.726299
-2.57463 -2.73718 18.7143
-2.5403099 -2.74155 18.721201
-2.5097799 -2.74084 18.714399
-2.47296 -2.74139 18.698601
-2.43999 -2.7405801 18.685499
-2.41134 -2.74069 18.686501
-2.38131 -2.7505 18.727699
-2.3527801 -2.7558801 18.7528
-2.3222599 -2.7551601 18.7458
-2.28479 -2.7564299 18.7314
-2.24821 -2.75547 18.7087
-2.2007401 -2.74032 18.5951
-2.16063 -2.7386799 18.5602
-2.11603 -2.7340701 18.500299
-2.08337 -2.72386 18.443199
-2.0478699 -2.72314 18.4226
-2.0113101 -2.72718 18.421301
-1.97472 -2.7232001 18.382401
-1.93472 -2.7228301 18.351601
-1.90062 -2.7226901 18.336399
-1.86656 -2.7225399 18.321199
-1.8314101 -2.7218201 18.3002
-1.79857 -2.72225 18.290501
-1.76428 -2.7202201 18.2652
-1.74146 -2.7112 18.2356
-1.70285 -2.7205501 18.2535
-1.63643 -2.7225499 18.236799
-1.60674 -2.7218201 18.229
-1.573 -2.7216599 18.213301
-1.54052 -2.72032 18.195
-1.50565 -2.72136 18.1819
-1.47326 -2.72001 18.1635
-1.4379801 -2.7183599 18.135599
-1.40494 -2.7209001 18.1346
-1.37754 -2.7184999 18.1238
-1.34508 -2.7246399 18.142401
-1.31536 -2.72088 18.118299
-1.2832 -2.7195301 18.099701
-1.25392 -2.7207899 18.1021
-1.1818399 -2.7225001 18.0653
-1.14352 -2.7198601 18.0221
-1.10087 -2.70555 17.905399
-1.06785 -2.7028999 17.875999
-1.03174 -2.6896901 17.781799
-0.99570101 -2.6886499 17.751301
-0.967471 -2.68682 17.738899
-0.90316898 -2.6735599 17.6392
-0.83505201 -2.66204 17.535801
-0.759902 -2.6576099 17.447599
-7.8161702 -2.67011 20.5634
-7.7676401 -2.67416 20.556999
-7.72787 -2.6749699 20.550699
-7.6883602 -2.67506 20.5422
-7.63908 -2.6747799 20.5198
-7.5952802 -2.67558 20.507999
-7.5482702 -2.67711 20.4944
-7.5061898 -2.67942 20.489799
-7.46944 -2.6807799 20.488899
-7.42767 -2.6800799 20.4743
-7.3882899 -2.6823201 20.472799
-7.3509498 -2.6838701 20.4716
-7.3083501 -2.6853199 20.462999
-7.27072 -2.6875801 20.4638
-7.22823 -2.6866701 20.4471
-7.18502 -2.6875501 20.435499
-7.1465702 -2.6876199 20.4275
-7.11202 -2.69221 20.440201
-7.0650902 -2.69543 20.4314
-7.02496 -2.6942201 20.4165
-6.9857202 -2.6974101 20.4179
-6.95432 -2.7012701 20.4324
-6.9223399 -2.7063401 20.450399
-6.8828201 -2.7023201 20.4263
-6.8414302 -2.7087901 20.4361
-6.8081598 -2.71018 20.439501
-6.7611399 -2.7100401 20.4182
-6.7227201 -2.7100899 20.409599
-6.68433 -2.71014 20.400999
-6.6374102 -2.70998 20.3794
-6.5905499 -2.70983 20.3578
-6.5522299 -2.7098701 20.349001
-6.5039802 -2.7102001 20.326799
-6.4587202 -2.7095499 20.3053
-6.41748 -2.7087801 20.289101
-6.3675499 -2.70978 20.266199
-6.32725 -2.70924 20.252001
-6.2891002 -2.70927 20.242701
-6.2448502 -2.7128 20.236799
-6.2019901 -2.7137599 20.2237
-6.1160798 -2.69333 20.070101
-6.0342002 -2.6781099 19.939899
-5.9621902 -2.6712999 19.8535
-5.9133301 -2.6644599 19.802099
-5.8583202 -2.66189 19.756001
-5.8014002 -2.65839 19.702999
-5.74719 -2.6538501 19.650299
-5.69594 -2.64993 19.604099
-5.6448398 -2.6460199 19.557899
-5.5981498 -2.64539 19.530001
-5.54283 -2.6417699 19.477301
-5.4981298 -2.63802 19.441099
-5.4612098 -2.63801 19.4307
-5.4163799 -2.63588 19.399599
-5.3640099 -2.6338501 19.356199
-5.3213201 -2.6336901 19.335199
-5.2790499 -2.6299801 19.3022
-5.24228 -2.63273 19.3011
-5.1900702 -2.62956 19.252701
-5.1553602 -2.63009 19.247101
-5.1169 -2.6295099 19.231001
-5.0725899 -2.6292901 19.205999
-5.0283499 -2.6290801 19.180901
-4.99189 -2.62905 19.1698
-4.95544 -2.62902 19.1588
-4.92067 -2.6308 19.157
-4.8792601 -2.6300499 19.134399
-4.83952 -2.63112 19.121099
-4.8024001 -2.63938 19.1383
-4.7666602 -2.63044 19.0958
-4.72469 -2.6356101 19.0931
-4.68717 -2.6341 19.073999
-4.6521802 -2.63552 19.070101
-4.6159601 -2.6354799 19.058399
-4.5740499 -2.6357901 19.037701
-4.5346398 -2.6333699 19.011299
-4.5070801 -2.64605 19.062201
-4.4717898 -2.6380701 19.022699
-4.4268198 -2.6376901 18.9932
-4.39007 -2.63732 18.9788
-4.3538399 -2.6408401 18.9797
-4.3218398 -2.6420801 18.980101
-4.28091 -2.6426101 18.960899
-4.2474899 -2.6411901 18.948601
-4.21245 -2.6502399 18.9723
-4.1816502 -2.6467299 18.957001
-4.1424999 -2.64539 18.933701
-4.1017199 -2.64519 18.9114
-4.0675201 -2.6547599 18.9389
-4.0325799 -2.6442299 18.888399
-3.99332 -2.64856 18.8859
-3.9601099 -2.6521599 18.8925
-3.925 -2.6535499 18.886801
-3.8941801 -2.6533799 18.8836
-3.85411 -2.6563101 18.874001
-3.82322 -2.6556599 18.868601
-3.79004 -2.65782 18.8696
-3.7557099 -2.6574199 18.858299
-3.72312 -2.66166 18.8685
-3.6832299 -2.6638701 18.8559
-3.6532199 -2.66275 18.8503
-3.61763 -2.6626699 18.837299
-3.5820701 -2.66259 18.8244
-3.54705 -2.6661401 18.826799
-3.5120101 -2.6697099 18.8293
-3.4765201 -2.6668 18.8048
-3.44102 -2.6695399 18.8029
-3.4105899 -2.6717899 18.8095
-3.37621 -2.6731901 18.804501
-3.34425 -2.67612 18.810699
-3.3136301 -2.6769099 18.8111
-3.2782199 -2.67682 18.7976
-3.2423601 -2.67891 18.792
-3.20823 -2.6811199 18.7906
-3.17273 -2.6838701 18.788401
-3.1440599 -2.68399 18.790001
-3.1121399 -2.68522 18.7892
-3.0797601 -2.68661 18.788099
-3.0457301 -2.68907 18.7878
-3.0099001 -2.69116 18.7819
-2.9746599 -2.6910601 18.768101
-2.93946 -2.6909599 18.7542
-2.9043 -2.69085 18.740299
-2.87626 -2.6887801 18.7337
-2.84376 -2.6909699 18.7353
-2.8097401 -2.6945801 18.739599
-2.7735801 -2.69628 18.731001
-2.7353101 -2.6979101 18.7171
-2.70666 -2.69802 18.7183
-2.6724 -2.69979 18.7139
-2.6366799 -2.6977999 18.6898
-2.6067801 -2.70403 18.7148
-2.5773101 -2.70312 18.7096
-2.5424299 -2.7048199 18.7033
-2.5092399 -2.7051799 18.695
-2.47527 -2.70716 18.6919
-2.4390099 -2.7123599 18.698
-2.4103501 -2.7124701 18.698999
-2.38168 -2.71257 18.6999
-2.3531799 -2.7179 18.724899
-2.3217499 -2.72089 18.732401
-2.2879901 -2.7179799 18.7075
-2.2485399 -2.7168601 18.677099
-2.20187 -2.71174 18.6105
-2.1659901 -2.7031901 18.553699
-2.1250999 -2.7000401 18.509199
-2.0822501 -2.6959 18.454901
-2.04793 -2.69578 18.4398
-2.0136499 -2.6956501 18.4247
-1.97576 -2.69242 18.385799
-1.93802 -2.6914201 18.3575
-1.9000601 -2.69115 18.3318
-1.87454 -2.68541 18.311399
-1.83991 -2.68646 18.3001
-1.80445 -2.68729 18.2855
-1.77393 -2.6844001 18.2656
-1.7104501 -2.6851201 18.2502
-1.67463 -2.68697 18.239201
-1.64017 -2.69135 18.2439
-1.61269 -2.6869099 18.2236
-1.57665 -2.68905 18.212999
-1.54017 -2.6916499 18.2036
-1.51211 -2.6902399 18.1964
-1.45085 -2.6883199 18.1724
-1.41712 -2.68012 18.115499
-1.38337 -2.6888299 18.143499
-1.34742 -2.6933801 18.1448
-1.3215801 -2.6912999 18.1397
-1.29001 -2.69472 18.1471
-1.26318 -2.6935799 18.143999
-1.23132 -2.6972401 18.151899
-1.2005399 -2.6963699 18.139099
-1.15257 -2.69274 18.063999
-1.11528 -2.6876299 18.010099
-1.04537 -2.6743 17.897699
-1.00063 -2.66535 17.8001
-0.97171301 -2.66166 17.775801
-0.905424 -2.6487999 17.671801
-7.8034101 -2.63006 20.5313
-7.75946 -2.6333001 20.527901
-7.7202601 -2.63448 20.5235
-7.6830702 -2.6344399 20.517401
-7.6380601 -2.6365199 20.5084
-7.5945902 -2.6368799 20.495399
-7.5471601 -2.6352799 20.470501
-7.5096402 -2.6410301 20.483601
-7.4638801 -2.6401501 20.462999
-7.4240198 -2.6416299 20.4583
-7.3859301 -2.64271 20.4545
-7.3474302 -2.6428001 20.4466
-7.3098402 -2.6450701 20.4475
-7.2737398 -2.6484399 20.4541
-7.22858 -2.6489899 20.4387
-7.18186 -2.65011 20.4231
-7.1434102 -2.6501901 20.4151
-7.1054301 -2.65148 20.411699
-7.0673599 -2.6584799 20.427999
-7.02981 -2.65326 20.402599
-6.9952202 -2.65782 20.415199
-6.95333 -2.65782 20.4018
-6.9081302 -2.66136 20.396099
-6.8838501 -2.6658599 20.4228
-6.84688 -2.6654301 20.4147
-6.81179 -2.67137 20.4314
-6.77142 -2.6764801 20.437799
-6.7241402 -2.67417 20.4083
-6.6901498 -2.66924 20.3883
-6.6417198 -2.6703999 20.369101
-6.5940299 -2.66802 20.3384
-6.5492501 -2.6724801 20.335699
-6.5109701 -2.6725199 20.326799
-6.467 -2.67366 20.313299
-6.4222398 -2.6714399 20.2868
-6.3807101 -2.6751499 20.285801
-6.3371801 -2.67588 20.2712
-6.2947998 -2.6730299 20.245399
-6.2432299 -2.6766 20.2288
-6.19558 -2.6772001 20.2071
-6.1348901 -2.6628001 20.1122
-6.0385599 -2.6473899 19.958599
-5.9694099 -2.63377 19.8521
-5.9118099 -2.6324501 19.806299
-5.86413 -2.62763 19.763399
-5.8111 -2.6196401 19.7005
-5.7425098 -2.6168499 19.6308
-5.69204 -2.6142399 19.590099
-5.6436701 -2.6073699 19.5376
-5.6005402 -2.60535 19.5103
-5.54848 -2.6022 19.4643
-5.49752 -2.6024001 19.431601
-5.4586601 -2.60185 19.416
-5.4144101 -2.6008 19.3895
-5.3653598 -2.5990601 19.352301
-5.3179698 -2.6006801 19.329399
-5.2767601 -2.5961299 19.295
-5.2395301 -2.5975201 19.2883
-5.1950498 -2.5973401 19.2635
-5.1524501 -2.5950699 19.2342
-5.1146302 -2.5957401 19.2236
-5.07797 -2.5936 19.2048
-5.0345702 -2.5978501 19.1971
-4.9960899 -2.59304 19.165199
-4.9531398 -2.5932 19.143299
-4.9187799 -2.59519 19.1429
-4.8734498 -2.59742 19.123899
-4.8329601 -2.59642 19.101601
-4.8000998 -2.5929301 19.0839
-4.7590699 -2.59712 19.079201
-4.7225199 -2.5998399 19.077299
-4.68471 -2.598 19.056299
-4.6500502 -2.5997801 19.054199
-4.6138501 -2.59975 19.0425
-4.5739398 -2.5996301 19.0236
-4.53162 -2.5987401 18.997299
-4.50281 -2.6031301 19.0154
-4.4693298 -2.5996001 18.995501
-4.4209199 -2.5999801 18.962
-4.3874502 -2.5985799 18.9498
-4.3559098 -2.6064601 18.9758
-4.3256202 -2.60221 18.9587
-4.2824602 -2.6099 18.962099
-4.2495198 -2.6075599 18.947001
-4.2191701 -2.6085999 18.949699
-4.1823201 -2.6099501 18.940901
-4.1364899 -2.6110899 18.9139
-4.1026001 -2.61322 18.913799
-4.0659199 -2.60958 18.886
-4.03686 -2.6139801 18.903799
-3.9939101 -2.61375 18.8766
-3.96299 -2.6131001 18.8713
-3.9298401 -2.6152599 18.8724
-3.8932099 -2.61865 18.8713
-3.85568 -2.61957 18.8587
-3.82162 -2.62007 18.8514
-3.79268 -2.62233 18.8613
-3.75648 -2.6236899 18.8529
-3.72297 -2.62728 18.858801
-3.6845901 -2.6256001 18.8339
-3.6517401 -2.6271501 18.832899
-3.6161799 -2.62708 18.819799
-3.5806401 -2.6270199 18.806801
-3.5462601 -2.6287799 18.803301
-3.50968 -2.6268799 18.7805
-3.47616 -2.63046 18.785999
-3.4396999 -2.63397 18.785101
-3.4110899 -2.6340799 18.7869
-3.37907 -2.6341 18.781
-3.34443 -2.6412799 18.798901
-3.3124001 -2.6413 18.792999
-3.27703 -2.6412301 18.779499
-3.2416799 -2.64115 18.766001
-3.2080801 -2.6447501 18.771299
-3.17366 -2.6459 18.764799
-3.1434901 -2.64621 18.7638
-3.11237 -2.6491499 18.771799
-3.0775399 -2.6510899 18.7675
-3.0441599 -2.6556101 18.777201
-3.00892 -2.65553 18.763399
-2.9737101 -2.6554401 18.7495
-2.93854 -2.65535 18.7355
-2.9033999 -2.6552701 18.7216
-2.8747799 -2.65537 18.7229
-2.8429201 -2.65538 18.716499
-2.8106201 -2.65798 18.7202
-2.7741001 -2.6574299 18.7008
-2.7367101 -2.65995 18.6926
-2.70593 -2.66243 18.6992
-2.6708701 -2.6659999 18.700701
-2.6377599 -2.6674299 18.697399
-2.6071501 -2.6696701 18.703501
-2.57741 -2.67097 18.7073
-2.5435801 -2.6696701 18.690001
-2.5086901 -2.66957 18.675501
-2.47597 -2.6711199 18.673401
-2.44014 -2.66818 18.6437
-2.4117999 -2.6761501 18.680799
-2.38046 -2.6791201 18.688299
-2.35198 -2.6844101 18.713301
-2.3232801 -2.68451 18.714001
-2.28847 -2.6844001 18.6992
-2.2476001 -2.6840899 18.6689
-2.20752 -2.6776199 18.6115
-2.1698 -2.66804 18.544901
-2.12744 -2.6684101 18.512899
-2.0878501 -2.6654999 18.472
-2.04776 -2.6633301 18.4328
-2.01438 -2.6616099 18.4123
-1.98168 -2.6534801 18.3629
-1.94639 -2.6528101 18.3421
-1.91231 -2.6526999 18.3267
-1.87827 -2.65258 18.311399
-1.84428 -2.6524701 18.296
-1.81032 -2.6523499 18.2806
-1.77641 -2.65224 18.264999
-1.72003 -2.65238 18.2652
-1.68619 -2.6522601 18.249599
-1.65239 -2.6521399 18.233999
-1.61985 -2.65083 18.215599
-1.58655 -2.6535399 18.215
-1.5531501 -2.65554 18.210699
-1.52087 -2.6554599 18.1987
-1.4928401 -2.6540501 18.191299
-1.4598 -2.6545999 18.180401
-1.42567 -2.6538 18.1595
-1.39406 -2.65276 18.143999
-1.32582 -2.6612799 18.153601
-1.29735 -2.6586699 18.1383
-1.26175 -2.6659 18.154499
-1.20558 -2.6660099 18.153601
-1.1669101 -2.6657 18.1217
-1.13265 -2.66501 18.099701
-1.06784 -2.64956 17.9904
-0.99059802 -2.6350801 17.8484
-0.92638701 -2.6311901 17.7994
-7.80267 -2.5922599 20.521999
-7.7544699 -2.59322 20.505199
-7.71773 -2.59653 20.5112
-7.6772499 -2.5978 20.505301
-7.6342402 -2.5978501 20.4918
-7.5868402 -2.59782 20.4722
-7.5447602 -2.6014299 20.472
-7.5057302 -2.59708 20.4484
-7.46802 -2.6040299 20.4653
-7.4203501 -2.6024001 20.4394
-7.38272 -2.6052899 20.4424
-7.3442402 -2.6053901 20.4345
-7.3057699 -2.60549 20.4266
-7.2698398 -2.60741 20.4284
-7.2298598 -2.61374 20.440001
-7.1870198 -2.6118901 20.419201
-7.1468201 -2.6179399 20.429399
-7.1089101 -2.6189899 20.425301
-7.06991 -2.6181099 20.413
-7.03054 -2.6203301 20.4109
-6.9921098 -2.62041 20.402599
-6.9537001 -2.6204901 20.394199
-6.91646 -2.6256199 20.4051
-6.88059 -2.63151 20.420601
-6.8491101 -2.6353199 20.434999
-6.8106499 -2.63539 20.426399
-6.7722201 -2.6354599 20.417801
-6.7337999 -2.63553 20.4091
-6.6953902 -2.6355901 20.4004
-6.6484699 -2.6354899 20.378799
-6.6016002 -2.63539 20.357201
-6.5611 -2.6348901 20.3431
-6.5110502 -2.6359601 20.3207
-6.4697599 -2.6352301 20.304501
-6.4253201 -2.63697 20.292299
-6.37644 -2.635 20.260201
-6.3382702 -2.6350501 20.250999
-6.3001199 -2.6350999 20.241699
-6.2557902 -2.6368301 20.2292
-6.2060599 -2.6410799 20.2174
-6.1419001 -2.6307299 20.131201
-6.0515499 -2.6105599 19.969101
-5.9707599 -2.60429 19.8701
-5.9159999 -2.5942099 19.7974
-5.8610401 -2.5889201 19.740999
-5.8032699 -2.5885401 19.697201
-5.744 -2.5775101 19.6127
-5.6947498 -2.5755301 19.576
-5.6461601 -2.57407 19.541901
-5.5929298 -2.57287 19.500799
-5.5455799 -2.57073 19.4659
-5.4986801 -2.5655799 19.4205
-5.45611 -2.5657499 19.401199
-5.4113202 -2.56371 19.370001
-5.3663802 -2.5633399 19.3444
-5.32725 -2.5632999 19.3295
-5.2741299 -2.5580699 19.2722
-5.2393799 -2.5585999 19.2666
-5.1949401 -2.55845 19.241699
-5.1501298 -2.5572901 19.2124
-5.1129298 -2.5566001 19.1978
-5.0756202 -2.55775 19.189501
-5.0391302 -2.55775 19.178499
-4.99721 -2.55914 19.1628
-4.95085 -2.55743 19.127899
-4.9161201 -2.5592101 19.125999
-4.8781199 -2.55741 19.105301
-4.84341 -2.55918 19.1033
-4.80549 -2.55738 19.0825
-4.77036 -2.5616901 19.0889
-4.7220402 -2.56182 19.056101
-4.6848898 -2.5585999 19.031
-4.6479502 -2.56198 19.0305
-4.6117401 -2.56407 19.026501
-4.5739698 -2.56284 19.007299
-4.5370798 -2.5611601 18.9879
-4.5033002 -2.5661199 18.999001
-4.4677501 -2.56673 18.9904
-4.4229102 -2.56932 18.971701
-4.3915601 -2.5673699 18.9613
-4.3566198 -2.5673699 18.951401
-4.3222699 -2.5693901 18.9501
-4.28934 -2.57094 18.9498
-4.2533998 -2.57091 18.937599
-4.2165799 -2.5720301 18.928101
-4.1810899 -2.57358 18.922501
-4.1417899 -2.57426 18.9063
-4.1058998 -2.5789499 18.912001
-4.0672402 -2.57412 18.8755
-4.0342598 -2.5788701 18.886999
-3.9974201 -2.5794001 18.874599
-3.96556 -2.5767801 18.859699
-3.93327 -2.58599 18.889999
-3.8977301 -2.5812099 18.8591
-3.8540299 -2.58217 18.834299
-3.8222699 -2.5853 18.841801
-3.79142 -2.58465 18.8363
-3.75699 -2.58641 18.833
-3.7202101 -2.5845499 18.810499
-3.68576 -2.5888801 18.8172
-3.65062 -2.5894799 18.8076
-3.6147201 -2.5915599 18.802299
-3.5792201 -2.5915 18.7892
-3.5446301 -2.5929 18.783701
-3.5092599 -2.5985701 18.7939
-3.4727199 -2.5967 18.770901
-3.43838 -2.59846 18.7673
-3.40767 -2.5978 18.7614
-3.3801899 -2.5998399 18.773399
-3.3466499 -2.60302 18.7771
-3.3111801 -2.6057501 18.775
-3.2766299 -2.6071501 18.769199
-3.2400301 -2.60778 18.7558
-3.2098801 -2.6080799 18.754801
-3.1737499 -2.6115999 18.754299
-3.14188 -2.6128199 18.753401
-3.11222 -2.6141 18.757601
-3.0789399 -2.6146901 18.750799
-3.04282 -2.6127901 18.7272
-3.0081899 -2.6171501 18.7334
-2.97276 -2.61989 18.7309
-2.9389701 -2.6183 18.7134
-2.9025099 -2.61974 18.7029
-2.8733001 -2.622 18.712099
-2.84431 -2.6283901 18.739799
-2.8094699 -2.6252899 18.712999
-2.7752199 -2.6270499 18.7087
-2.7382801 -2.62764 18.6929
-2.70522 -2.6268899 18.680099
-2.6747301 -2.6262 18.6733
-2.64059 -2.6280899 18.6695
-2.6072299 -2.6319399 18.676201
-2.5780499 -2.6305599 18.669201
-2.543 -2.63412 18.670601
-2.5074 -2.63621 18.6642
-2.47611 -2.6395199 18.6733
-2.4493501 -2.64272 18.692699
-2.4156201 -2.6414399 18.6752
-2.38082 -2.64135 18.6605
-2.35238 -2.64659 18.6854
-2.3220999 -2.6510501 18.7024
-2.2880299 -2.65328 18.700001
-2.2472401 -2.65324 18.6709
-2.2161701 -2.6439099 18.6215
-2.1728301 -2.6408 18.571199
-2.1297901 -2.63678 18.5166
-2.0909901 -2.63362 18.4762
-2.06004 -2.6273999 18.440399
-2.0241301 -2.6266501 18.4181
-1.9852099 -2.6252 18.384399
-1.94522 -2.6249299 18.3535
-1.91299 -2.6241601 18.3396
-1.87825 -2.6235499 18.32
-1.84307 -2.62464 18.307199
-1.8091 -2.6245401 18.2918
-1.78088 -2.6246099 18.291901
-1.75385 -2.6234901 18.289301
-1.71877 -2.6245699 18.2763
-1.6849101 -2.62447 18.2607
-1.6567301 -2.6245401 18.2607
-1.6273299 -2.6257901 18.2633
-1.59477 -2.62449 18.244801
-1.56103 -2.6243899 18.229
-1.5273401 -2.62428 18.2131
-1.47003 -2.6238501 18.2069
-1.42776 -2.6227801 18.1626
-1.39844 -2.6240201 18.165001
-1.37036 -2.6240799 18.1646
-1.33688 -2.62397 18.1485
-1.30292 -2.6349001 18.188801
-1.27842 -2.6289201 18.1665
-1.24668 -2.63501 18.187799
-1.20944 -2.6384799 18.18
-1.17602 -2.63837 18.163799
-1.13394 -2.6372299 18.1173
-1.07028 -2.6240001 18.022301
-1.01088 -2.61203 17.944901
-7.79882 -2.55444 20.508499
-7.7513499 -2.55445 20.4893
-7.7081099 -2.55193 20.4667
-7.6704102 -2.5552001 20.4711
-7.6290398 -2.5576401 20.467899
-7.5850501 -2.5599301 20.460699
-7.5450802 -2.5605299 20.452801
-7.5065699 -2.5606501 20.445101
-7.4688802 -2.5683801 20.4648
-7.4303899 -2.56444 20.443001
-7.38517 -2.56602 20.431299
-7.3477602 -2.56883 20.434299
-7.3069501 -2.5703199 20.427999
-7.2694402 -2.57423 20.4345
-7.2314401 -2.5755301 20.431299
-7.1929698 -2.5756299 20.423201
-7.15452 -2.5757201 20.4151
-7.1162701 -2.57939 20.4196
-7.0706501 -2.5785699 20.3983
-7.0303898 -2.58498 20.409599
-6.9974999 -2.58675 20.414801
-6.9553499 -2.58757 20.403799
-6.9175901 -2.59045 20.406099
-6.8833799 -2.59214 20.409201
-6.8407602 -2.59062 20.389
-6.8161998 -2.5980999 20.4263
-6.77879 -2.6038499 20.439199
-6.7374401 -2.6042199 20.427401
-6.6949301 -2.60183 20.403999
-6.6509199 -2.60077 20.382999
-6.60466 -2.6031799 20.371099
-6.5629401 -2.6035399 20.358299
-6.5172801 -2.60271 20.3354
-6.4731798 -2.6040399 20.3223
-6.4333601 -2.6052799 20.315201
-6.3850899 -2.6027601 20.281799
-6.3434501 -2.60396 20.271601
-6.30339 -2.6039801 20.2593
-6.2567501 -2.6045699 20.239201
-6.2087798 -2.60496 20.216
-6.1643 -2.60129 20.183399
-6.0489998 -2.5749099 19.959801
-5.9844398 -2.5638199 19.868401
-5.9243102 -2.5599301 19.809
-5.8651299 -2.5603001 19.7659
-5.8154402 -2.54793 19.6919
-5.7513299 -2.5448599 19.627701
-5.6918898 -2.5440099 19.578199
-5.64573 -2.53987 19.5383
-5.5962601 -2.5344501 19.4881
-5.5433102 -2.5299201 19.435101
-5.5063801 -2.5299399 19.424601
-5.4562998 -2.5304401 19.3937
-5.4147801 -2.52918 19.370701
-5.3667898 -2.53021 19.3447
-5.32552 -2.5276999 19.3172
-5.2792201 -2.5278001 19.2904
-5.2346501 -2.5256801 19.2582
-5.1978898 -2.52685 19.251301
-5.1558599 -2.5232799 19.217899
-5.11729 -2.5269799 19.2167
-5.0747199 -2.52548 19.1896
-5.03614 -2.5266199 19.1789
-4.9969301 -2.5268099 19.1635
-4.9604802 -2.52841 19.1581
-4.9151502 -2.5260301 19.122101
-4.8785601 -2.5287499 19.120399
-4.8422098 -2.5287499 19.1089
-4.8058801 -2.5287499 19.0975
-4.7695899 -2.5287399 19.086
-4.7307901 -2.5279901 19.067101
-4.6837702 -2.52899 19.039301
-4.6458001 -2.52845 19.0224
-4.6096501 -2.52845 19.010599
-4.5735202 -2.52844 18.9988
-4.5374198 -2.52843 18.987
-4.5013499 -2.52841 18.9751
-4.4653001 -2.5283999 18.9631
-4.4292798 -2.5283899 18.9512
-4.3947301 -2.5301499 18.948601
-4.3573298 -2.5283501 18.927
-4.3263898 -2.53633 18.9548
-4.2874398 -2.5353701 18.933399
-4.2520399 -2.5406401 18.942301
-4.2174902 -2.5424099 18.9396
-4.1815801 -2.5423801 18.9272
-4.14569 -2.5423601 18.9149
-4.1115098 -2.54287 18.9077
-4.0731001 -2.5434699 18.892599
-4.0346398 -2.5422101 18.870001
-3.99915 -2.54337 18.862499
-3.9619 -2.54284 18.8449
-3.93009 -2.54336 18.8421
-3.89431 -2.54568 18.8384
-3.85689 -2.54561 18.821899
-3.82285 -2.5538599 18.8451
-3.79021 -2.55743 18.852699
-3.7555201 -2.5562301 18.837099
-3.7199099 -2.5562 18.8241
-3.68086 -2.5560901 18.8036
-3.6487899 -2.5561299 18.798
-3.6132801 -2.5560901 18.7848
-3.5778 -2.5560501 18.7717
-3.5423501 -2.556 18.7584
-3.5069399 -2.5559599 18.7451
-3.4751401 -2.5639999 18.7724
-3.4397099 -2.5680499 18.775801
-3.40571 -2.5683899 18.767
-3.3777001 -2.5738599 18.792101
-3.34532 -2.5703101 18.7705
-3.3099599 -2.57026 18.757
-3.2746401 -2.57021 18.743401
-3.2393501 -2.5701599 18.7297
-3.2066 -2.5717001 18.728201
-3.1698999 -2.5750899 18.7257
-3.1408 -2.5773301 18.7351
-3.11064 -2.57919 18.740601
-3.0764501 -2.5827401 18.744301
-3.04215 -2.5845001 18.7402
-3.0069599 -2.58445 18.726299
-2.9718201 -2.5843899 18.712299
-2.9412401 -2.58372 18.705799
-2.90359 -2.5850401 18.6919
-2.87305 -2.5843699 18.685301
-2.84447 -2.58445 18.686399
-2.8094599 -2.5880001 18.688
-2.77443 -2.59516 18.705601
-2.7394199 -2.59389 18.6859
-2.70437 -2.59865 18.692801
-2.67575 -2.5987401 18.693899
-2.64397 -2.5987501 18.687201
-2.60776 -2.59938 18.6728
-2.5773001 -2.59869 18.665899
-2.5424299 -2.5986199 18.651199
-2.5076101 -2.5985501 18.6367
-2.4790399 -2.59864 18.6374
-2.44998 -2.6059799 18.6703
-2.4146299 -2.6131899 18.687799
-2.3798201 -2.6131101 18.673
-2.3511801 -2.6131999 18.6737
-2.32254 -2.6132801 18.6744
-2.2918501 -2.61551 18.680099
-2.2559299 -2.6150301 18.6604
-2.21841 -2.61305 18.629499
-2.1728799 -2.61147 18.580601
-2.14364 -2.6090901 18.567699
-2.09868 -2.59781 18.473101
-2.0584199 -2.5975699 18.442301
-2.0241399 -2.5974901 18.427
-1.98991 -2.59741 18.411699
-1.9557101 -2.5973301 18.3964
-1.91737 -2.5978701 18.373199
-1.88744 -2.5971701 18.365499
-1.85524 -2.5964 18.3515
-1.8205301 -2.59582 18.331699
-1.78536 -2.59691 18.3188
-1.72885 -2.5970399 18.318899
-1.69494 -2.5969601 18.3032
-1.66107 -2.5968699 18.2875
-1.62845 -2.5955999 18.268999
-1.59753 -2.5960801 18.263599
-1.56718 -2.6004601 18.279699
-1.5370899 -2.5968101 18.2554
-1.47075 -2.5971799 18.2292
-1.43608 -2.59654 18.2075
-1.4025 -2.5964501 18.191401
-1.34629 -2.59655 18.1905
-1.27714 -2.6036301 18.190599
-1.21983 -2.6084299 18.211599
-1.18515 -2.61093 18.205999
-1.14719 -2.61111 18.1782
-1.07566 -2.59935 18.068501
-1.01842 -2.5957501 18.042801
-7.7923598 -2.51208 20.4757
-7.7465401 -2.51388 20.464701
-7.7073698 -2.5157599 20.4625
-7.6688399 -2.5158999 20.455
-7.6319799 -2.5195701 20.461901
-7.5911899 -2.5204501 20.453899
-7.5453801 -2.5197001 20.433599
-7.5033302 -2.5232999 20.433201
-7.4648499 -2.5234201 20.4254
-7.4282098 -2.52631 20.429701
-7.3906398 -2.53004 20.435699
-7.3500099 -2.52966 20.4231
-7.3154402 -2.5345399 20.437099
-7.2740202 -2.5378301 20.436199
-7.23069 -2.5393801 20.4266
-7.1918201 -2.5397201 20.418699
-7.1522002 -2.5405099 20.411301
-7.1146402 -2.54126 20.4065
-7.0709701 -2.54444 20.401899
-7.02983 -2.54498 20.3913
-7.0026798 -2.5471301 20.405899
-6.9593101 -2.5501201 20.4007
-6.9153199 -2.5513201 20.3883
-6.8854499 -2.55545 20.4062
-6.8516102 -2.5606 20.4221
-6.8131599 -2.5606899 20.413401
-6.7832999 -2.56091 20.4174
-6.7427101 -2.5671401 20.4275
-6.7047501 -2.56463 20.410101
-6.6585598 -2.563 20.3839
-6.61064 -2.56721 20.375999
-6.5703301 -2.5666201 20.361799
-6.52352 -2.5633299 20.328199
-6.4795699 -2.5674901 20.325399
-6.4354901 -2.5636899 20.293699
-6.39082 -2.5652499 20.2803
-6.3534002 -2.5659699 20.274599
-6.3060799 -2.5670199 20.254999
-6.2607999 -2.5679901 20.238199
-6.2158599 -2.5709701 20.229
-6.1644902 -2.5713699 20.200399
-6.0645599 -2.5458 20.002199
-5.98946 -2.5311899 19.8811
-5.9198399 -2.5262499 19.802601
-5.8738799 -2.5220599 19.763901
-5.8141599 -2.5159099 19.695801
-5.7522302 -2.51069 19.6269
-5.7014799 -2.50493 19.5737
-5.6504202 -2.5012701 19.5273
-5.59729 -2.50107 19.489599
-5.5480399 -2.4965701 19.4424
-5.5047202 -2.4966099 19.4212
-5.4598198 -2.4955499 19.393299
-5.4158001 -2.4943199 19.3659
-5.3694801 -2.4936299 19.3365
-5.3251801 -2.4900701 19.299801
-5.2835999 -2.49437 19.296101
-5.2451401 -2.4882801 19.259899
-5.1996498 -2.48876 19.2353
-5.16119 -2.4881699 19.2188
-5.12397 -2.4933901 19.225599
-5.0812898 -2.48753 19.1821
-5.03725 -2.4911399 19.1707
-4.9997001 -2.4880099 19.146
-4.9643502 -2.4911699 19.148199
-4.9167199 -2.4883599 19.106199
-4.87362 -2.4860599 19.0742
-4.8399801 -2.4930699 19.0933
-4.8036499 -2.4909899 19.0741
-4.76682 -2.49037 19.059099
-4.7255301 -2.4972601 19.063801
-4.6898899 -2.4916301 19.0322
-4.6511698 -2.4944799 19.0264
-4.6163201 -2.4912701 19.0049
-4.5714402 -2.4928801 18.9828
-4.5365601 -2.4942901 18.9785
-4.5041399 -2.4964299 18.9816
-4.4665999 -2.4964099 18.9666
-4.42942 -2.4998801 18.965599
-4.3934102 -2.4998801 18.953501
-4.35742 -2.4998701 18.941401
-4.3228798 -2.5016401 18.9387
-4.2855401 -2.49986 18.916901
-4.2505898 -2.50336 18.92
-4.2156301 -2.50687 18.923
-4.17944 -2.5041299 18.899401
-4.1438799 -2.50685 18.898199
-4.1069798 -2.50542 18.878
-4.0722599 -2.50682 18.873199
-4.0367198 -2.5095401 18.8717
-3.9988899 -2.5091 18.8533
-3.9621699 -2.5058601 18.8258
-3.93086 -2.5138099 18.8533
-3.8939199 -2.5120101 18.8309
-3.85498 -2.5158 18.8265
-3.82008 -2.5183699 18.8255
-3.78827 -2.51373 18.8018
-3.75302 -2.51934 18.812099
-3.71839 -2.52074 18.806801
-3.68191 -2.5193 18.7859
-3.64732 -2.5207 18.7805
-3.61274 -2.5221 18.775
-3.576 -2.5227599 18.7619
-3.54318 -2.5241899 18.760099
-3.50652 -2.5276699 18.758499
-3.4779601 -2.52776 18.760201
-3.44363 -2.52952 18.756399
-3.4072001 -2.5276999 18.733299
-3.37904 -2.5313399 18.7505
-3.34407 -2.5348599 18.752501
-3.3087499 -2.5348301 18.739
-3.2734499 -2.53479 18.725201
-3.2377 -2.53688 18.7195
-3.2025499 -2.54004 18.7194
-3.16803 -2.53824 18.699699
-3.1397099 -2.5418899 18.716801
-3.1101 -2.5431499 18.7208
-3.0755999 -2.5476401 18.7278
-3.0411501 -2.5490401 18.7218
-3.0067 -2.5504401 18.7155
-2.97087 -2.54895 18.693701
-2.9403601 -2.54972 18.693399
-2.90679 -2.5505199 18.686399
-2.87328 -2.5501699 18.674299
-2.8436999 -2.5562 18.699301
-2.8078599 -2.5543399 18.6752
-2.77367 -2.5560999 18.6707
-2.73949 -2.5578599 18.666201
-2.70433 -2.5610399 18.665701
-2.67506 -2.5632701 18.6747
-2.6445501 -2.5640299 18.6742
-2.6105299 -2.56288 18.6567
-2.57669 -2.5632501 18.6465
-2.54199 -2.5676 18.6523
-2.5086601 -2.5682199 18.644199
-2.47808 -2.57042 18.65
-2.4494901 -2.5704999 18.6507
-2.41418 -2.5776701 18.6681
-2.3791001 -2.5812299 18.669399
-2.35269 -2.5770099 18.655399
-2.3215001 -2.5850101 18.687
-2.2908001 -2.58723 18.692699
-2.2581 -2.5850301 18.6726
-2.2186601 -2.5820301 18.631901
-2.17733 -2.58181 18.599501
-2.1435499 -2.5729799 18.5443
-2.0994401 -2.5690801 18.4865
-2.0580699 -2.5669999 18.4438
-2.0334401 -2.5589001 18.414101
-1.99476 -2.56429 18.4137
-1.9557101 -2.56217 18.3759
-1.92222 -2.5641201 18.371901
-1.88836 -2.5671101 18.372101
-1.85776 -2.56305 18.345699
-1.82523 -2.5620301 18.329399
-1.79752 -2.5576899 18.308901
-1.76513 -2.56568 18.3377
-1.7332799 -2.56303 18.3144
-1.69582 -2.5669601 18.3095
-1.66541 -2.56914 18.314501
-1.6371599 -2.5692 18.314301
-1.60331 -2.5691299 18.298401
-1.54278 -2.56987 18.290199
-1.47935 -2.5690899 18.2659
-1.44566 -2.56902 18.249901
-1.41202 -2.5689399 18.2337
-1.35572 -2.5690401 18.2327
-1.32215 -2.56896 18.2166
-1.29175 -2.5711401 18.221001
-1.23703 -2.58004 18.271601
-1.19303 -2.58459 18.2512
-1.16082 -2.5833199 18.231899
-1.12209 -2.5831001 18.199699
-1.08734 -2.57933 18.158899
-7.79178 -2.4733601 20.4629
-7.7472501 -2.47368 20.448299
-7.7049499 -2.47611 20.443899
-7.6655798 -2.47857 20.443199
-7.62707 -2.4787099 20.435699
-7.5890098 -2.47981 20.4319
-7.5414 -2.4823899 20.4207
-7.5015702 -2.4855001 20.4216
-7.4616399 -2.48612 20.4135
-7.4257598 -2.48803 20.4153
-7.38976 -2.4913399 20.4219
-7.3517699 -2.49262 20.418699
-7.3137102 -2.4937 20.4146
-7.2783098 -2.49581 20.4177
-7.2294998 -2.4993801 20.4076
-7.1953902 -2.50106 20.4109
-7.1554799 -2.5016601 20.402399
-7.1122999 -2.50297 20.3918
-7.0714102 -2.5012901 20.3736
-7.0365601 -2.5070801 20.3904
-7.0008898 -2.5107601 20.3985
-6.9620399 -2.5097001 20.385201
-6.9281602 -2.5171399 20.409401
-6.8888001 -2.5165601 20.396999
-6.8548298 -2.52212 20.414301
-6.81949 -2.5269899 20.4272
-6.7855 -2.5307 20.437901
-6.7446699 -2.52899 20.4191
-6.70859 -2.53089 20.4202
-6.6701498 -2.5309899 20.411301
-6.6189499 -2.53091 20.383101
-6.5763202 -2.5309401 20.367701
-6.5309601 -2.5304201 20.3461
-6.4826999 -2.53088 20.323601
-6.4374399 -2.53036 20.3018
-6.3892798 -2.5308101 20.2791
-6.3510699 -2.53089 20.269699
-6.3106699 -2.52916 20.250401
-6.2648501 -2.53141 20.237301
-6.21981 -2.53088 20.215099
-6.1647401 -2.53122 20.180401
-6.05795 -2.50506 19.968201
-5.9990201 -2.4986899 19.901699
-5.9311199 -2.4869499 19.8009
-5.8731899 -2.4867499 19.757401
-5.8203402 -2.4772899 19.687799
-5.7520499 -2.47281 19.611
-5.7047601 -2.47224 19.5819
-5.6536498 -2.4686401 19.5354
-5.6048999 -2.4616101 19.4799
-5.5461402 -2.4579201 19.4196
-5.5012598 -2.45787 19.3953
-5.4643798 -2.4579101 19.384701
-5.41961 -2.45786 19.3601
-5.37219 -2.4570799 19.3283
-5.3224101 -2.4549601 19.287201
-5.28264 -2.45281 19.263
-5.2424502 -2.4557199 19.256399
-5.1984 -2.4501801 19.212
-5.15837 -2.4558401 19.2155
-5.1206598 -2.45276 19.190901
-5.07865 -2.4561701 19.1824
-5.0338898 -2.45172 19.139999
-4.9963899 -2.45327 19.132299
-4.9621301 -2.45755 19.1406
-4.9236202 -2.45332 19.1096
-4.8783998 -2.4559801 19.0919
-4.8408999 -2.45574 19.0772
-4.8014698 -2.4574499 19.0662
-4.7652102 -2.4574699 19.054501
-4.7289801 -2.45749 19.0429
-4.69277 -2.45751 19.031099
-4.65659 -2.45752 19.0194
-4.61866 -2.45702 19.0023
-4.5693698 -2.45736 18.9669
-4.5370402 -2.4574299 18.962099
-4.5043302 -2.46787 18.996201
-4.4692302 -2.45924 18.9529
-4.4275298 -2.46229 18.941601
-4.3942199 -2.46491 18.944599
-4.3591499 -2.4644301 18.932301
-4.3216901 -2.4648099 18.918501
-4.2834902 -2.46648 18.908199
-4.2523599 -2.4679401 18.910801
-4.2137699 -2.47138 18.9065
-4.1765499 -2.46963 18.884501
-4.1420798 -2.47139 18.8815
-4.1062698 -2.47139 18.868999
-4.0704899 -2.47139 18.8564
-4.03475 -2.47139 18.8437
-3.9990301 -2.47139 18.830999
-3.9633501 -2.47139 18.818199
-3.9277 -2.47138 18.8055
-3.8933201 -2.47314 18.802099
-3.8528399 -2.4807799 18.8099
-3.82073 -2.4763999 18.786501
-3.7880199 -2.4853599 18.815599
-3.75179 -2.4818499 18.787001
-3.7168701 -2.4853401 18.7894
-3.68135 -2.4853301 18.776199
-3.64586 -2.4853201 18.7631
-3.6138501 -2.4853599 18.757299
-3.57497 -2.4853001 18.7365
-3.54317 -2.48651 18.7358
-3.50858 -2.4923501 18.748301
-3.47859 -2.4900801 18.737101
-3.44154 -2.49472 18.7393
-3.4071801 -2.4935501 18.723101
-3.37817 -2.49949 18.748199
-3.3428299 -2.49947 18.7346
-3.3075299 -2.49945 18.7209
-3.27422 -2.49876 18.708599
-3.23704 -2.4994099 18.693501
-3.20667 -2.50158 18.6996
-3.17366 -2.50418 18.701799
-3.1386299 -2.50651 18.6985
-3.10853 -2.5083399 18.7038
-3.0743899 -2.5118699 18.7075
-3.0401499 -2.5136299 18.7033
-3.0069599 -2.5129299 18.690599
-2.9709799 -2.5124099 18.6724
-2.9433501 -2.5144 18.684
-2.90869 -2.5151899 18.6742
-2.87328 -2.5143399 18.6555
-2.8434899 -2.5186601 18.672501
-2.8082099 -2.5179901 18.6546
-2.7722399 -2.52285 18.6597
-2.7395201 -2.5242801 18.657
-2.7061801 -2.5242701 18.6464
-2.67626 -2.5286 18.663401
-2.6458099 -2.52793 18.656401
-2.61093 -2.5279 18.6418
-2.5761001 -2.5278599 18.627199
-2.54755 -2.52793 18.627899
-2.5146401 -2.5315101 18.6343
-2.4815099 -2.5341799 18.636101
-2.4485199 -2.5422499 18.663401
-2.4181099 -2.5415699 18.6562
-2.3851299 -2.54228 18.6492
-2.35463 -2.54304 18.6483
-2.3245399 -2.54597 18.6588
-2.29442 -2.5488901 18.6691
-2.2631199 -2.55687 18.7008
-2.22647 -2.5467501 18.6327
-2.18332 -2.54213 18.5744
-2.1428101 -2.54196 18.543501
-2.10238 -2.5418 18.512699
-2.06901 -2.53458 18.465099
-2.0369401 -2.5262101 18.414801
-2.0027499 -2.5278699 18.407801
-1.9673899 -2.5272901 18.3867
-1.93326 -2.52723 18.371201
-1.89917 -2.52719 18.3556
-1.8651201 -2.5271299 18.34
-1.83111 -2.5270801 18.3244
-1.80287 -2.5271399 18.324301
-1.74727 -2.5276599 18.3283
-1.7036999 -2.54141 18.357401
-1.67055 -2.53777 18.3253
-1.61212 -2.54093 18.3354
-1.5781 -2.5425899 18.327999
-1.54735 -2.5406699 18.3106
-1.48902 -2.54145 18.308399
-1.4552701 -2.5414 18.2924
-1.4215699 -2.5413401 18.276199
-1.36517 -2.54143 18.275
-1.3020999 -2.5425999 18.261
-7.7892399 -2.43398 20.445101
-7.7490401 -2.4360499 20.4422
-7.7077198 -2.4384899 20.438999
-7.6617699 -2.44012 20.4268
-7.6238298 -2.4414301 20.423901
-7.58534 -2.44157 20.416201
-7.5399499 -2.44436 20.408501
-7.5032101 -2.4476099 20.414
-7.4671998 -2.44893 20.413601
-7.4251599 -2.4525199 20.413099
-7.3874798 -2.4561501 20.4186
-7.349 -2.45628 20.4105
-7.3105402 -2.4564099 20.4025
-7.2725701 -2.45771 20.399099
-7.2350798 -2.46018 20.4006
-7.1978998 -2.46187 20.3997
-7.1624899 -2.4639699 20.4027
-7.1157298 -2.4649701 20.385799
-7.0738702 -2.4711001 20.394199
-7.03544 -2.47122 20.3857
-6.9970198 -2.4713399 20.377199
-6.96105 -2.4732299 20.3785
-6.92487 -2.4765301 20.3846
-6.8875399 -2.4797299 20.3885
-6.8541098 -2.48597 20.409201
-6.8172402 -2.4888501 20.412701
-6.7877102 -2.5004499 20.4585
-6.7525902 -2.49351 20.4289
-6.7163301 -2.4941499 20.4251
-6.6744399 -2.4946699 20.4126
-6.6266999 -2.49441 20.3888
-6.5809698 -2.4954901 20.3724
-6.54002 -2.48945 20.337099
-6.4906402 -2.49316 20.324699
-6.4454298 -2.4902201 20.2941
-6.4032402 -2.4938099 20.2917
-6.3603301 -2.49473 20.278299
-6.3148198 -2.49085 20.2432
-6.26688 -2.49634 20.2388
-6.2255602 -2.4948201 20.218399
-6.1749101 -2.4991 20.205
-6.0864301 -2.4791801 20.0432
-6.0083299 -2.4640701 19.914301
-5.9285898 -2.4554601 19.805599
-5.8806801 -2.4508901 19.761801
-5.8169098 -2.4432299 19.680799
-5.7568102 -2.4396 19.6199
-5.7088799 -2.4349401 19.574699
-5.6551399 -2.4308 19.521601
-5.6021299 -2.4285901 19.476299
-5.5551 -2.42893 19.450001
-5.5053802 -2.4259901 19.406799
-5.46208 -2.4240301 19.377899
-5.4170799 -2.4219401 19.345301
-5.37219 -2.4198501 19.312799
-5.33394 -2.41927 19.297001
-5.2863998 -2.4155099 19.2533
-5.2451601 -2.4167299 19.2386
-5.2024498 -2.4164801 19.215799
-5.1564002 -2.4166701 19.188499
-5.1181698 -2.4149799 19.1679
-5.0833902 -2.41676 19.1661
-5.0408902 -2.4164901 19.1429
-4.99508 -2.4166901 19.115299
-4.9570498 -2.4149899 19.0945
-4.9223499 -2.41676 19.0924
-4.8829198 -2.41711 19.076401
-4.8487201 -2.4177799 19.0711
-4.8144898 -2.4240899 19.086901
-4.7715001 -2.4229801 19.0585
-4.7325702 -2.41856 19.025
-4.69063 -2.4219699 19.015301
-4.6544399 -2.4240601 19.011299
-4.61832 -2.4229701 18.9951
-4.5812898 -2.42664 18.995399
-4.5403299 -2.4231701 18.9608
-4.5114799 -2.43016 18.989201
-4.4762702 -2.42904 18.9744
-4.4328399 -2.4289899 18.947701
-4.3968501 -2.4290099 18.935499
-4.3559499 -2.4296701 18.916201
-4.3206701 -2.43048 18.908199
-4.2817502 -2.4289899 18.8841
-4.2484002 -2.4324901 18.8901
-4.2109699 -2.4278901 18.856501
-4.1806102 -2.4363999 18.8881
-4.1402702 -2.4359801 18.864901
-4.1055498 -2.4373901 18.8599
-4.0704198 -2.44295 18.870399
-4.03334 -2.44122 18.8482
-3.9970901 -2.4381101 18.821899
-3.9630001 -2.44029 18.820999
-3.9275301 -2.4430001 18.8193
-3.89064 -2.4412601 18.796801
-3.8562701 -2.4430201 18.793501
-3.8206899 -2.4430201 18.780399
-3.78514 -2.4430301 18.767401
-3.7523899 -2.4445601 18.766199
-3.7156899 -2.4479201 18.764299
-3.67893 -2.4486001 18.751101
-3.6443901 -2.4500101 18.7456
-3.6089499 -2.4500101 18.7323
-3.5746 -2.45698 18.75
-3.54389 -2.4563501 18.743999
-3.50722 -2.4570301 18.7307
-3.4774201 -2.4577899 18.732401
-3.4449601 -2.4592199 18.7311
-3.4112301 -2.45964 18.7227
-3.3773401 -2.46205 18.722401
-3.3415899 -2.4641399 18.7166
-3.30632 -2.4641299 18.7029
-3.27584 -2.46489 18.7029
-3.2397201 -2.47001 18.709
-3.20976 -2.46913 18.7031
-3.17733 -2.4705601 18.701599
-3.13959 -2.47192 18.687901
-3.10903 -2.4712701 18.6814
-3.07409 -2.4747801 18.683001
-3.03915 -2.4782801 18.684799
-3.00723 -2.47597 18.6677
-2.9723699 -2.4818201 18.679899
-2.9445 -2.47751 18.663099
-2.90869 -2.4783599 18.6509
-2.8747101 -2.4839001 18.6637
-2.84203 -2.48543 18.6616
-2.80706 -2.48541 18.6472
-2.77212 -2.4854 18.632799
-2.7416601 -2.48756 18.638599
-2.71312 -2.4876399 18.6394
-2.67943 -2.4911799 18.6439
-2.6444499 -2.4947 18.6453
-2.6117499 -2.49613 18.642401
-2.58267 -2.4961901 18.641899
-2.5498199 -2.49857 18.643
-2.51806 -2.4997699 18.6413
-2.4832799 -2.4997499 18.6264
-2.44964 -2.4985499 18.608801
-2.42136 -2.5062201 18.6458
-2.3908701 -2.5069799 18.645
-2.35618 -2.5115499 18.651899
-2.29829 -2.51423 18.6633
-2.2635801 -2.5142 18.6483
-2.22891 -2.5141599 18.633101
-2.19256 -2.5133901 18.610001
-2.1467299 -2.5113399 18.556499
-2.1103001 -2.50757 18.518
-2.08125 -2.50137 18.486
-2.0464399 -2.4995501 18.4606
