# .PCD v0.7 - Point Cloud Data file format
VERSION 0.7
FIELDS x y z
SIZE 4 4 4
TYPE F F F
COUNT 1 1 1
WIDTH 1596
HEIGHT 1
VIEWPOINT 0 0 0 1 0 0 0
POINTS 1596
DATA ascii
-2.5502601 -6.1538601 13.7947
-2.5217199 -6.1409502 13.7661
-2.4799099 -6.1245098 13.7098
-2.38623 -6.0610299 13.531
-2.3138001 -6.0423999 13.4955
-2.2550299 -6.0403199 13.4701
-2.2314899 -6.02632 13.4465
-2.19469 -6.0254502 13.4211
-2.1262801 -6.0356498 13.4769
-2.0367701 -6.0851102 13.5209
-1.67562 -5.7314901 12.6071
-1.55274 -5.6795402 12.4898
-1.4335001 -5.61696 12.277
-1.23989 -5.5763998 12.1535
-0.975842 -5.34447 11.4966
-0.951949 -5.3046899 11.4174
-0.87907201 -5.2737598 11.2899
-0.88822001 -5.2864199 11.3733
-0.82687497 -5.2325101 11.2281
-0.75859398 -5.1953001 11.0955
-0.73410398 -5.1884398 11.0709
-0.71538001 -5.1682401 11.0346
-0.67290699 -5.1382399 10.9274
-0.63257599 -5.1366901 10.9598
-0.58330899 -5.1181598 10.8987
-0.55380303 -5.0982499 10.8369
-0.493314 -5.0606399 10.7124
-0.44630799 -5.0750399 10.7584
-0.39705801 -5.0683899 10.7164
-0.38004199 -5.0459399 10.6765
-0.181555 -5.0227299 10.5917
-0.078182504 -5.3898902 11.3076
0.36705199 -5.7279501 12.4493
0.41807401 -5.7399101 12.4554
-0.66393298 -5.1542401 10.9701
-0.48879999 -5.0928202 10.7964
-0.239345 -5.06003 10.7092
-4.1907101 -6.2705898 14.4315
-4.1150398 -6.2340498 14.3453
-4.0667601 -6.2107401 14.2804
-4.0086398 -6.19805 14.2162
-3.9498 -6.16044 14.1157
-3.88942 -6.1715999 14.1494
-3.86058 -6.1591802 14.1257
-3.81352 -6.14604 14.0749
-3.7776201 -6.14255 14.0533
-3.7142301 -6.13415 14.0198
-3.6473501 -6.1370502 14.0319
-3.5991299 -6.1423302 14.0395
-3.5680399 -6.1476402 14.0369
-3.53457 -6.1324902 14.0014
-3.51211 -6.1403699 14.015
-3.4545901 -6.14224 14.0393
-3.41991 -6.1405301 14.021
-3.3896201 -6.1352501 14.0039
-3.35654 -6.1352601 13.9903
-3.3294001 -6.1182899 13.9607
-3.2979901 -6.1274099 13.9627
-3.23682 -6.14047 13.9978
-3.1254799 -6.1745801 14.0614
-3.04933 -6.1538801 14.0236
-3.0075099 -6.1290598 13.9581
-2.9708099 -6.1196098 13.9235
-2.93572 -6.1108098 13.8923
-2.87498 -6.1186399 13.883
-2.8108599 -6.1028399 13.8694
-2.74828 -6.0848198 13.8168
-2.7139201 -6.0784001 13.7894
-2.65522 -6.0788598 13.7709
-2.60302 -6.0815601 13.8044
-2.5824399 -6.06848 13.7883
-2.5428801 -6.0864701 13.7904
-2.50734 -6.08004 13.7601
-2.45363 -6.0669599 13.7276
-2.34567 -6.02039 13.5889
-2.31248 -6.00279 13.5436
-2.2606201 -5.9885502 13.5104
-2.15062 -5.9944701 13.5276
-2.1236 -5.9840999 13.5035
-2.09566 -5.9917002 13.5072
-2.0690501 -5.9976001 13.5104
-1.97789 -6.04457 13.6298
-1.47975 -5.6189899 12.4415
-1.27921 -5.5742998 12.3007
-1.2679 -5.6023202 12.4509
-0.95298702 -5.2579799 11.4057
-0.89895701 -5.2081099 11.2842
-0.89862102 -5.2387199 11.3795
-0.83529299 -5.2007499 11.258
-0.78284198 -5.1575999 11.1488
-0.74853301 -5.1396899 11.0826
-0.68248099 -5.08917 10.927
-0.63322997 -5.0878701 10.9398
-0.58065701 -5.04321 10.8218
-0.555722 -5.05652 10.832
-0.49744901 -5.0148301 10.7465
-0.42274299 -4.9879098 10.6491
-0.37373599 -4.9895802 10.6225
-0.32726401 -4.96766 10.5556
-0.27995801 -4.9540901 10.5456
-0.23324101 -4.9652801 10.542
-0.170689 -4.9615102 10.5137
-0.159568 -4.9524202 10.5125
-0.12668 -4.9470501 10.5093
0.047377899 -5.00982 10.6579
0.41341999 -5.6313801 12.3104
0.45936501 -5.65695 12.3604
0.484245 -5.6545801 12.3448
0.53691298 -5.64889 12.3562
0.57373202 -5.6659398 12.4101
-3.8247499 -6.1910701 14.1891
-3.66273 -6.1717 14.1389
-3.5401499 -6.1634302 14.0892
-3.4579201 -6.1758699 14.1289
-3.3085599 -6.1637902 14.0679
-3.2497799 -6.1740899 14.1036
-2.7019899 -6.09934 13.8395
-2.6401601 -6.1026101 13.8202
-2.59462 -6.1094098 13.8722
-2.0601299 -6.0206599 13.5714
-1.05999 -5.3740001 11.7469
-0.98809803 -5.3007598 11.5494
-0.95532 -5.2785201 11.4819
-0.83494902 -5.2136102 11.3152
-0.758654 -5.1594901 11.1334
-0.675372 -5.1124001 10.9877
-0.53835201 -5.0509601 10.8159
-0.48884699 -5.0278301 10.7429
-0.40046999 -5.0202398 10.7367
-0.36004701 -4.9861302 10.6177
-0.234727 -4.9786601 10.6078
-0.17287 -4.99687 10.6262
-0.102808 -5.5189199 11.6489
-0.027445801 -5.0134602 10.6615
0.0582022 -5.0592299 10.7739
0.431081 -5.6876402 12.4486
-3.8083899 -6.05725 14.0123
-3.69787 -6.05234 13.9502
-3.59637 -6.0619798 13.9909
-3.44101 -6.0575299 13.9673
-3.41587 -6.0546999 13.9613
-3.3583 -6.0517602 13.9422
-2.9672799 -6.0792999 13.9677
-2.59512 -6.0425401 13.8437
-2.4605999 -6.0262198 13.7501
-2.3096001 -5.9945698 13.6793
-1.99534 -5.99296 13.6524
-0.860259 -5.1822901 11.348
-0.78185999 -5.1110001 11.1307
-0.75231802 -5.09726 11.0822
-0.37004599 -5.26965 10.8288
-0.50056201 -4.9510598 10.6592
-0.45271301 -4.9587402 10.6899
-0.40482801 -4.93501 10.6171
-0.32192001 -4.9080801 10.4959
-0.245597 -4.9109101 10.5347
-0.12693 -4.9074001 10.5013
0.071814701 -4.9657898 10.6245
0.41059899 -5.5574899 12.2407
0.43417501 -5.5489001 12.213
0.53746802 -5.5823302 12.2943
0.55331898 -5.5762 12.2918
-4.50455 -6.37782 14.9416
-4.2715702 -6.2384701 14.5013
-4.1856499 -6.19767 14.4298
-4.09831 -6.1625299 14.3286
-4.0443602 -6.1452498 14.2635
-3.9963701 -6.1206102 14.1961
-3.9484 -6.1065602 14.1431
-3.8777101 -6.0984101 14.1352
-3.8484199 -6.09236 14.1196
-3.81107 -6.0841899 14.0892
-3.77531 -6.0855398 14.0745
-3.7181399 -6.07691 14.0494
-3.65557 -6.0808802 14.0696
-3.5975699 -6.0844102 14.0604
-3.56687 -6.0801802 14.0445
-3.5353301 -6.0805502 14.0339
-3.51162 -6.0826302 14.0375
-3.4523001 -6.0811 14.0544
-3.4200499 -6.0865998 14.0502
-3.39185 -6.0714798 14.0217
-3.3536201 -6.07441 14.0044
-3.3255799 -6.06182 13.9796
-3.2971101 -6.0663199 13.9793
-3.23804 -6.07233 14.0074
-3.06827 -6.1202898 14.1136
-2.9894099 -6.0869899 14.0141
-2.95434 -6.08182 13.9885
-2.9052899 -6.07794 13.9801
-2.9033699 -6.0910201 14.0351
-2.8263299 -6.0645299 13.947
-2.7742 -6.0599198 13.9321
-2.61274 -6.0434699 13.8737
-2.57212 -6.03866 13.8766
-2.52406 -6.0339999 13.8285
-2.4544001 -6.0350399 13.7919
-2.3936999 -6.03089 13.8011
-2.2968199 -5.9825602 13.6766
-2.1832299 -5.9731202 13.6645
-2.1297801 -5.9590998 13.5886
-2.03146 -5.9795599 13.6521
-0.97070497 -5.2417498 11.519
-0.78334999 -5.12637 11.1969
-0.74803901 -5.1076999 11.1265
-0.684322 -5.0607901 10.9816
-0.54509401 -4.99017 10.7861
-0.53050101 -5.0095 10.8317
-0.49221 -4.97753 10.7243
-0.49241 -4.9850302 10.7823
-0.39866701 -4.9583101 10.6826
-0.232151 -4.91888 10.5533
-0.0215268 -4.9358602 10.5586
0.420784 -5.5893102 12.3403
0.44649899 -5.5889802 12.3272
0.47013801 -5.60391 12.3561
0.498299 -5.6006198 12.3295
0.58970302 -5.64223 12.4658
-0.86019897 -5.1539102 11.3666
-0.79153699 -5.0841498 11.1723
-0.76191002 -5.0704799 11.1235
-0.64461797 -5.00631 10.9518
-0.49131 -4.9177599 10.6855
-0.39974001 -4.8895202 10.5863
-4.3567901 -6.1969199 14.5974
-4.1378999 -6.0889101 14.2827
-4.0707502 -6.0720201 14.234
-4.0316801 -6.0636601 14.2018
-3.9748299 -6.0411701 14.1243
-3.94361 -6.0342898 14.1049
-3.86339 -6.0197802 14.0738
-3.83411 -6.0231099 14.0713
-3.80268 -6.0172501 14.0525
-3.7709501 -6.0100598 14.0312
-3.74807 -6.0277801 14.0583
-3.7156401 -6.01475 14.0276
-3.6530001 -6.0261002 14.0581
-3.6033001 -6.0314498 14.0636
-3.56949 -6.0334902 14.0521
-3.54408 -6.0257201 14.0388
-3.5211401 -6.0226998 14.0361
-3.4486301 -6.0254698 14.0394
-3.41923 -6.0195599 14.0226
-3.39294 -6.0208602 14.021
-3.3501201 -6.0096202 13.9757
-3.3241401 -6.0159998 13.9819
-3.2974501 -6.0068302 13.9639
-3.2424099 -6.0173302 14.005
-3.0895 -6.0963001 14.1853
-3.04633 -6.0717702 14.1177
-3.0060101 -6.0536599 14.064
-2.97522 -6.0465298 14.0421
-2.58233 -6.0194602 13.9397
-2.5374701 -6.0068302 13.884
-2.4807799 -6.0013599 13.8589
-2.50632 -6.0176601 13.9671
-2.41466 -6.0016599 13.8666
-2.3536501 -5.9871101 13.8187
-2.3078101 -5.9591999 13.7345
-2.1784201 -5.9379101 13.6758
-2.14114 -5.9332399 13.6433
-2.0948601 -5.9359298 13.6475
-0.79358602 -5.08706 11.2172
-0.74242198 -5.0475402 11.0724
-0.64536399 -5.0196199 11.0137
-0.58487201 -4.9867101 10.8983
-0.35864201 -5.2220802 10.8097
-0.49035299 -4.9215202 10.6821
-0.35878101 -4.8728299 10.5332
-0.211677 -4.8586202 10.4973
-0.0524044 -5.35706 11.4472
0.42489299 -5.5179501 12.2583
0.46599099 -5.5199499 12.2641
0.54529899 -5.5318699 12.3031
-4.4321299 -6.1775098 14.6399
-4.40378 -6.18538 14.6469
-4.2311301 -6.1009798 14.3956
-4.12573 -6.0403299 14.2329
-4.0563698 -6.0165601 14.1711
-4.0120502 -6.0055499 14.1275
-3.9673901 -5.9927001 14.0806
-3.9166901 -5.9718299 14.0134
-3.8545101 -5.9685998 14.0235
-3.8255501 -5.9622598 14.0075
-3.79602 -5.9693899 14.0098
-3.7690201 -5.9741998 14.0125
-3.7425301 -5.9695802 14.0023
-3.7093899 -5.9645 13.9817
-3.65097 -5.9883599 14.0361
-3.6043899 -5.9916201 14.0431
-3.57197 -5.9949999 14.0356
-3.5429399 -5.97473 13.9986
-3.51685 -5.98104 14.0046
-3.4577999 -5.9904799 14.0377
-3.4236901 -5.9697599 13.9918
-3.3907599 -5.97861 13.9913
-3.3557999 -5.9639201 13.9527
-3.3204 -5.9569702 13.9247
-3.2925999 -5.9609599 13.9245
-3.2399499 -5.97544 13.9749
-3.10395 -6.07372 14.211
-3.0676 -6.0573401 14.1666
-3.0255599 -6.03686 14.1066
-2.9907999 -6.02494 14.0711
-2.43977 -5.9843602 13.9197
-2.3724699 -5.9762502 13.8721
-2.3412399 -5.9633598 13.8375
-2.2852399 -5.9390998 13.7415
-2.2053101 -5.9281602 13.7456
-2.01424 -5.9274302 13.7344
-1.76451 -6.0858302 14.1104
-1.7156301 -6.1141901 14.202
-1.69011 -6.1352601 14.2374
-0.882985 -5.1379499 11.4579
-0.80360699 -5.0543699 11.214
-0.758883 -5.0201302 11.0933
-0.70678997 -4.9885201 11.0019
-0.651748 -4.95508 10.8989
-0.50270498 -4.8627501 10.6331
-0.44400799 -4.8536201 10.6053
-0.400024 -4.8378 10.5556
-0.37002301 -4.8260102 10.5468
-0.319774 -4.79807 10.4565
-0.241653 -4.79881 10.4417
-0.201803 -4.7945199 10.4226
-0.119848 -4.81498 10.4383
-0.032113198 -5.2793798 11.3231
0.43804401 -5.4549198 12.175
0.466813 -5.4759202 12.2051
0.47939301 -5.4244699 12.1001
0.53754097 -5.4295201 12.1211
0.55680799 -5.4475198 12.169
0.58068001 -5.4511099 12.1694
0.64661998 -5.48873 12.2535
-4.1359501 -6.0123301 14.2432
-3.7917299 -5.9236498 13.9734
-3.7093101 -5.9190202 13.9515
-3.6434 -5.9393601 13.9896
-3.57252 -5.9454002 13.9999
-3.4730201 -5.9514699 14.039
-3.3842599 -5.9279799 13.9425
-3.34954 -5.92418 13.9203
-3.3199501 -5.9138899 13.896
-3.2325399 -5.9292998 13.9305
-3.12062 -6.0466199 14.2332
-3.04212 -6.0153198 14.1372
-3.0717499 -6.0032902 14.2743
-2.7516799 -6.09338 14.5632
-2.49858 -6.0616598 14.3034
-2.11743 -5.8957801 13.6987
-2.0536799 -5.92768 13.7631
-0.78688198 -5.05371 11.211
-0.44108 -4.87288 10.6709
-0.32100701 -4.8222899 10.499
-0.126454 -4.7874899 10.3888
-0.118456 -4.8194098 10.4806
-4.4054198 -6.07407 14.5311
-4.32935 -6.0391798 14.4127
-4.1001101 -5.94912 14.1393
-4.0317202 -5.91678 14.0659
-4.0007801 -5.9230499 14.0653
-3.9507401 -5.9029498 14
-3.90256 -5.8934498 13.952
-3.8495901 -5.8976302 13.9854
-3.8203499 -5.8903799 13.9675
-3.79053 -5.89115 13.9602
-3.7585499 -5.89885 13.9596
-3.7060399 -5.88342 13.9306
-3.6502299 -5.9068398 13.9879
-3.5996399 -5.9151402 13.9961
-3.5720999 -5.9201298 13.9981
-3.54795 -5.91465 13.9897
-3.5198801 -5.9152198 13.9843
-3.4567001 -5.9182901 14.0016
-3.42261 -5.9084902 13.9717
-3.3920701 -5.9042501 13.9552
-3.3559799 -5.8993402 13.9292
-3.3192401 -5.8910999 13.897
-3.2969201 -5.8889699 13.8959
-3.22754 -5.8994498 13.9143
-3.11921 -6.01436 14.2192
-3.09636 -6.0198598 14.2298
-3.05369 -5.9995298 14.169
-3.0183001 -5.9931698 14.1412
-2.6564801 -6.0489101 14.2669
-2.60885 -6.0519199 14.2728
-2.2369001 -5.9128299 13.8541
-2.1772699 -5.8959298 13.8029
-2.1434 -5.8909602 13.776
-2.06374 -5.9058599 13.8654
-1.85627 -5.9793 14.1654
-1.75789 -6.0234098 14.1579
-1.7225 -6.0570102 14.1987
-1.6979001 -6.0768199 14.2337
-1.65848 -6.1038899 14.2988
-0.808258 -5.0204201 11.2319
-0.71911597 -4.95508 11.037
-0.66984802 -4.9604902 11.0634
-0.600815 -4.90693 10.8884
-0.50262201 -4.8230901 10.6256
-0.45252401 -4.8067498 10.6038
-0.40294901 -4.78509 10.5288
-0.28088 -4.7495999 10.422
-0.254264 -4.73667 10.3738
-0.120192 -4.7423301 10.3605
0.48194301 -5.3631301 12.0427
0.53602999 -5.3817601 12.1077
0.55798203 -5.3831801 12.1074
0.57903302 -5.3835201 12.1067
0.60317498 -5.3930702 12.1212
0.64388901 -5.40312 12.1476
-0.42058501 -4.7997298 10.592
-0.27719599 -4.7685199 10.487
-0.72390598 -4.9337201 11.0783
-0.55533999 -4.8509202 10.8313
-0.44439399 -4.7505002 10.5439
-0.33672801 -4.7102599 10.4193
-0.27901199 -4.6902699 10.3678
-0.243269 -4.6774001 10.2962
-0.242792 -4.6894102 10.3641
-0.080148503 -4.6639299 10.2558
0.48303401 -5.2823501 11.9396
0.535981 -5.2941799 11.9898
0.55482203 -5.3031201 12.0163
0.57722199 -5.2969599 11.9951
-4.4823399 -6.0522699 14.6452
-4.4116602 -6.0008101 14.5107
-4.3478599 -5.9850202 14.4351
-4.2840199 -5.9333 14.3083
-4.2609 -5.9562998 14.3429
-4.2120099 -5.9042802 14.2357
-4.1599898 -5.8786802 14.161
-4.09413 -5.8829899 14.143
-4.0257301 -5.8612199 14.0839
-3.98913 -5.85109 14.0518
-3.94136 -5.8359098 13.9962
-3.90503 -5.83568 13.978
-3.8461499 -5.8403602 14.004
-3.8190401 -5.8345599 13.9911
-3.78619 -5.8376498 13.9826
-3.75248 -5.83041 13.9578
-3.7279899 -5.8183098 13.9394
-3.7100501 -5.8480802 13.9915
-3.6503799 -5.8558302 14.021
-3.6094401 -5.86694 14.0478
-3.5794499 -5.8668299 14.0387
-3.5469201 -5.8632398 14.0205
-3.5206299 -5.8647299 14.0192
-3.4512801 -5.8589301 14.0141
-3.42066 -5.8547401 13.9976
-3.3868999 -5.8495998 13.9747
-3.3564701 -5.8464198 13.9598
-3.2946801 -5.8383002 13.9255
-3.22439 -5.83672 13.8873
-3.23088 -5.8516502 13.9572
-3.10057 -5.9770498 14.2854
-3.06689 -5.9715099 14.2617
-3.0364101 -5.9675798 14.2455
-3.0522001 -5.9230199 14.3116
-2.7546101 -6.0276198 14.3954
-2.72334 -6.0260601 14.3814
-2.6731901 -6.0223598 14.3726
-2.61814 -6.0249701 14.3661
-2.5706501 -6.0365901 14.4275
-2.7418301 -6.0521898 14.8369
-2.64679 -5.9102802 14.853
-1.73125 -5.9908199 14.3543
-1.5737 -6.1146202 14.523
-1.5497299 -6.1155601 14.5254
-0.81137103 -5.00633 11.3201
-0.71692002 -4.9341898 11.0989
-0.60758197 -4.88729 10.9732
-0.545995 -4.8419399 10.8274
-0.4402 -4.77669 10.6208
-0.39980301 -4.7509899 10.5593
-0.316506 -4.7382102 10.5057
-0.162478 -4.6887398 10.3295
-0.016044701 -4.7091599 10.3606
0.54492301 -5.3231902 12.0904
0.56320298 -5.3136501 12.072
0.590069 -5.33636 12.1126
0.60686398 -5.32727 12.0993
0.64709198 -5.3366799 12.1256
-4.5194201 -5.9903202 14.576
-4.10568 -5.8467102 14.1431
-3.9337101 -5.7974 13.9652
-3.81654 -5.7964602 13.9678
-3.7714 -5.78513 13.9203
-3.75618 -5.7969198 13.9501
-3.6572299 -5.8233199 14.0194
-3.6040599 -5.8347902 14.0285
-3.5203199 -5.8317399 14.006
-3.3587699 -5.8116798 13.9475
-2.9903901 -5.9698701 14.3693
-2.77233 -6.00699 14.4312
-2.6904099 -6.0049701 14.4132
-2.49951 -6.0346398 14.4693
-1.54161 -6.1012502 14.5304
-0.46493801 -4.7332702 10.6298
-0.413928 -4.6990499 10.5253
-0.38271001 -4.6719999 10.4384
-0.32899901 -4.6465902 10.3421
-0.27718699 -4.6313 10.3137
-0.0918971 -4.6114602 10.2477
0.053633299 -4.6496401 10.3184
0.110141 -4.6956201 10.4125
0.570391 -5.2325802 11.9517
0.64360303 -5.24613 11.9528
-4.6061401 -5.9785299 14.6444
-4.3933802 -5.8751101 14.3459
-4.3485198 -5.8537402 14.288
-4.2944698 -5.8333101 14.2184
-4.2514801 -5.8154998 14.1676
-4.20927 -5.8244901 14.1555
-4.1361198 -5.7817502 14.0262
-4.07092 -5.7759199 14.0282
-4.0036502 -5.75494 13.971
-3.9703 -5.76021 13.9652
-3.9324701 -5.7533398 13.9354
-3.8900499 -5.7534399 13.9087
-3.8386199 -5.7573099 13.9438
-3.8125 -5.7575002 13.9408
-3.77812 -5.7536201 13.9198
-3.7530601 -5.7568998 13.9228
-3.7193601 -5.7374201 13.8797
-3.70209 -5.76752 13.9334
-3.6515701 -5.7804298 13.9837
-3.60621 -5.7880402 13.9986
-3.5805299 -5.8128099 14.0328
-3.5532401 -5.7962098 14.003
-3.5246201 -5.7824202 13.9752
-3.44947 -5.7765198 13.9607
-3.4154401 -5.7740698 13.9414
-3.38622 -5.76829 13.9242
-3.3515401 -5.7645998 13.9018
-3.3230801 -5.7653399 13.8955
-3.2942901 -5.7624502 13.8831
-3.22592 -5.7657099 13.8919
-3.0987799 -5.9518499 14.3594
-3.0806201 -5.9461198 14.36
-3.0767801 -5.9417601 14.3853
-3.0490401 -5.9483199 14.3905
-2.9937601 -5.9565301 14.4317
-3.00491 -5.8920202 14.4177
-2.7181499 -5.99929 14.4906
-2.6165299 -6.0057302 14.535
-2.51366 -6.0149698 14.5019
-2.41044 -6.0341501 14.5667
-2.4065299 -6.0556998 14.6796
-1.80136 -5.9579201 14.5061
-1.65443 -6.0250602 14.4614
-1.5819401 -6.0550098 14.5189
-1.56238 -6.0503402 14.5186
-1.53694 -6.07054 14.5555
-1.51292 -6.0714598 14.5578
-0.73153597 -4.9262099 11.1892
-0.67651999 -4.9096498 11.1618
-0.31814101 -4.65134 10.3598
-0.318423 -4.6796799 10.4631
-0.278532 -4.66608 10.4246
-0.119556 -4.6353402 10.3162
-0.090654299 -4.6370702 10.2902
-0.082722403 -4.6353698 10.3122
-0.050730798 -4.6515899 10.3091
0.074677803 -5.0982499 11.1891
0.464499 -5.1788902 11.7723
0.500732 -5.25035 11.9627
0.56152302 -5.24683 12.0092
0.587219 -5.2609601 12.0309
0.60421097 -5.2484999 12.0079
0.62764901 -5.2734399 12.0641
-4.6883798 -5.9732499 14.7155
-4.3680201 -5.8206701 14.2697
-4.3263898 -5.7991199 14.2157
-4.2851801 -5.79527 14.1871
-4.2330799 -5.76648 14.1077
-4.1870999 -5.7497401 14.0536
-4.1256299 -5.7374902 13.9836
-4.0644302 -5.7262902 13.9832
-3.9971099 -5.7174501 13.943
-3.96205 -5.7076201 13.9129
-3.9293101 -5.7009301 13.8906
-3.88836 -5.7047901 13.8713
-3.8306501 -5.7081599 13.8962
-3.8076301 -5.7196999 13.9142
-3.7691 -5.70434 13.8701
-3.7499399 -5.71699 13.8954
-3.7174499 -5.7102299 13.8726
-3.7005799 -5.7172098 13.893
-3.6489 -5.73735 13.952
-3.60532 -5.7508898 13.9783
-3.5830901 -5.7454901 13.9726
-3.5509801 -5.7532802 13.9718
-3.5325201 -5.7536502 13.9805
-3.4449401 -5.73101 13.9216
-3.41028 -5.7235799 13.8937
-3.3821199 -5.7251801 13.8892
-3.3478999 -5.7210202 13.8666
-3.3193099 -5.7122302 13.8455
-3.2888501 -5.7205 13.8474
-3.2292099 -5.7219701 13.8668
-3.05738 -5.9292498 14.413
-2.6536801 -5.9411502 15.0356
-1.76371 -5.94661 14.4673
-1.59641 -6.0295701 14.5442
-1.53908 -6.0432301 14.5546
-0.64499003 -4.8432798 11.083
-0.456653 -4.67451 10.5637
-0.419092 -4.6545701 10.5196
-0.24498101 -4.57622 10.2787
-0.20310199 -4.5932798 10.2974
-0.167143 -4.5708699 10.2026
-0.160264 -4.5896902 10.27
-0.090787701 -4.5743999 10.239
0.13942599 -4.6269798 10.3524
0.46681499 -5.1387801 11.7148
0.57655603 -5.1810899 11.9057
0.594675 -5.1729498 11.89
0.61717701 -5.1753201 11.8897
0.64124602 -5.1781998 11.8863
-3.0576501 -5.9086499 14.4203
-0.193542 -4.5962601 10.3155
-0.11845 -4.5872998 10.2843
-4.6270399 -5.8248301 14.4963
-4.4080801 -5.73874 14.1785
-4.4478698 -5.7884402 14.3372
-4.3284798 -5.7088499 14.1273
-4.2792902 -5.67381 14.0429
-4.2458 -5.6823702 14.0423
-4.20924 -5.6665602 14.0024
-4.1721501 -5.6697698 13.9888
-4.14469 -5.6815 14.0009
-4.1271601 -5.6653199 13.9868
-4.0412302 -5.64288 13.9006
-3.9918599 -5.6447201 13.901
-3.9507 -5.6311102 13.8564
-3.91642 -5.6329398 13.8438
-3.8821101 -5.6305199 13.8249
-3.82111 -5.6272702 13.8349
-3.79194 -5.6167898 13.8114
-3.7623401 -5.6283002 13.8196
-3.73208 -5.61726 13.7936
-3.7162001 -5.64464 13.8454
-3.6951799 -5.6525002 13.8609
-3.6479001 -5.65977 13.9072
-3.6059699 -5.67343 13.9359
-3.58091 -5.6749001 13.9362
-3.5425501 -5.66185 13.8945
-3.52562 -5.6911302 13.949
-3.44472 -5.6624699 13.8905
-3.4081399 -5.6581898 13.8642
-3.38046 -5.65418 13.8518
-3.35045 -5.6510701 13.8371
-3.3150799 -5.6388602 13.8
-3.2869699 -5.6391802 13.7932
-3.2225101 -5.6598802 13.8344
-2.7802501 -5.9916101 14.7058
-2.48369 -6.01582 14.87
-2.1609099 -6.0838199 15.1606
-1.94513 -6.03549 15.0013
-1.70947 -5.9549799 14.5251
-1.6251 -5.9788699 14.5942
-1.53602 -6.0030398 14.6124
-1.4805599 -6.0313401 14.6558
-0.65908098 -4.82266 11.149
-0.51296401 -4.66504 10.665
-0.41222 -4.60357 10.4709
-0.237527 -4.5356798 10.247
-0.211327 -4.51264 10.176
-0.20404699 -4.5427699 10.266
-0.089904003 -4.5159898 10.1842
-0.061294898 -4.5178299 10.1585
-0.0191507 -4.5142698 10.1307
-0.0138089 -4.5302 10.1984
0.122578 -4.94595 11.0006
0.45396799 -5.0517101 11.5746
0.59230298 -5.1039701 11.8203
0.61162603 -5.09484 11.7981
0.63324201 -5.1025901 11.814
0.69548601 -5.1261702 11.8708
0.729967 -5.11093 11.8454
-3.97421 -5.6659098 13.976
-3.9245501 -5.6601701 13.9302
-3.7276101 -5.66682 13.9308
-0.28169799 -4.57337 10.3852
-0.23197401 -4.5447898 10.2881
-0.16628 -4.5358901 10.2351
-0.111415 -4.5358901 10.2289
0.123281 -4.8936501 10.9216
0.60382402 -5.1227598 11.89
0.65325397 -5.1405602 11.9114
-3.3361499 -5.5640302 13.7546
-0.467116 -4.57691 10.4915
-0.47146001 -4.5839801 10.5603
-0.42770901 -4.5687799 10.51
-0.251955 -4.4802299 10.1946
-0.250752 -4.4897099 10.2564
-0.169205 -4.46 10.117
-0.17067499 -4.4685001 10.1845
-0.127535 -4.4658999 10.1568
-0.087560199 -4.4597201 10.1293
-0.069434501 -4.4596901 10.1271
-0.051311702 -4.45965 10.1248
-0.0226741 -4.4721098 10.1219
-0.0163326 -4.4684 10.1434
0.45681199 -4.99227 11.5139
0.60951501 -5.0295 11.7355
0.62820601 -5.0276499 11.7338
0.68782097 -5.0262399 11.7297
0.72622502 -5.0338802 11.7541
0.77043998 -5.0582199 11.8084
-4.7331901 -5.8298602 14.688
-4.5776901 -5.7403202 14.4184
-4.4745998 -5.6891398 14.2723
-4.37992 -5.6326499 14.1287
-4.31633 -5.6419001 14.1213
-4.2821398 -5.6310902 14.0919
-4.2350101 -5.61379 14.0349
-4.2045598 -5.6111999 14.0223
-4.1634498 -5.5992498 13.9809
-4.1115999 -5.5805302 13.9142
-4.0377402 -5.57898 13.9089
-3.9779501 -5.5805702 13.8937
-3.94362 -5.56462 13.8551
-3.9130199 -5.5567398 13.8336
-3.8700099 -5.5705199 13.8253
-3.8183801 -5.5641899 13.8447
-3.7623401 -5.5721998 13.8436
-3.7350099 -5.5780501 13.8468
-3.69753 -5.5868802 13.8746
-3.6480999 -5.6087499 13.94
-3.6084001 -5.6205602 13.9697
-3.5703001 -5.6036501 13.9223
-3.54638 -5.6121998 13.935
-3.5178499 -5.61093 13.9257
-3.43753 -5.6054001 13.9029
-3.40733 -5.58851 13.8668
-3.3822601 -5.5935502 13.8722
-3.3517499 -5.5928702 13.8603
-3.3134699 -5.5847998 13.8248
-3.2848499 -5.59022 13.8251
-3.22539 -5.5943198 13.8488
-2.7265899 -5.9278202 15.11
-2.21333 -6.0667901 15.3218
-2.49119 -5.8239102 15.2709
-0.278422 -4.5165401 10.3304
-0.238426 -4.50946 10.3031
-0.0862749 -4.4847398 10.1712
-0.084309697 -4.4863901 10.2166
-0.0432893 -4.4917202 10.2119
0.60091603 -5.0534401 11.8198
0.70192301 -5.0646701 11.8475
0.74574101 -5.0864801 11.8966
-4.54422 -5.6613798 14.2963
-3.85601 -5.51999 13.8009
-0.37596899 -4.5021701 10.4048
-0.33803201 -4.4702601 10.3315
-0.28864101 -4.4633799 10.2808
-0.25580201 -4.4267302 10.1635
-0.246968 -4.4370298 10.2075
-0.21486001 -4.4214902 10.136
-0.208947 -4.43085 10.1859
-0.169909 -4.4286399 10.1699
-0.133461 -4.4005599 10.0582
-0.13101099 -4.41329 10.1253
-0.091150902 -4.4071598 10.0976
-0.0266604 -4.4089899 10.0672
0.049965601 -4.4331002 10.1487
0.118557 -4.4683499 10.2333
0.14502899 -4.4881001 10.2544
0.62772399 -4.9647799 11.6717
0.65163499 -4.96911 11.6716
0.72778499 -4.9637299 11.6649
-4.6427999 -5.6753502 14.4188
-4.5366602 -5.6216302 14.2651
-4.42629 -5.57758 14.1177
-4.3830299 -5.5461302 14.0464
-4.3587699 -5.5543699 14.0581
-4.2835102 -5.53686 13.9953
-4.2661901 -5.5623002 14.0416
-4.2224302 -5.5335898 13.9723
-4.1854601 -5.5236101 13.9395
-4.1420498 -5.5109601 13.8935
-4.0901098 -5.4893498 13.822
-4.0929599 -5.51406 13.896
-4.0254002 -5.4976902 13.8434
-3.9669199 -5.4936199 13.8214
-3.9352 -5.4904699 13.805
-3.90137 -5.4798398 13.7745
-3.86764 -5.4695702 13.7445
-3.8527601 -5.48072 13.7736
-3.812 -5.4884901 13.7945
-3.7829399 -5.4861202 13.7828
-3.7550001 -5.4976001 13.7933
-3.7274401 -5.4960299 13.785
-3.6953599 -5.5059299 13.8223
-3.67366 -5.50564 13.8246
-3.6409299 -5.5342698 13.8897
-3.59196 -5.53723 13.8916
-3.5636201 -5.5423999 13.8924
-3.54058 -5.5366502 13.8845
-3.5121 -5.5405998 13.8831
-3.44102 -5.5453701 13.8899
-3.3754399 -5.52738 13.8334
-3.3392701 -5.5185499 13.7999
-3.3113699 -5.5191302 13.7938
-3.2825601 -5.5090499 13.7695
-2.9895 -5.8519702 14.7018
-2.9238801 -5.8766799 14.7978
-2.90628 -5.8892798 14.8311
-2.69977 -5.9830699 15.3074
-1.76969 -5.9085002 14.7413
-1.73824 -5.90097 14.714
-1.71128 -5.9054098 14.7183
-1.64873 -5.91292 14.7535
-1.61176 -5.9125199 14.7298
-1.5654401 -5.92029 14.7504
-1.48016 -5.9347701 14.804
-1.47246 -5.9490499 14.8646
-1.38667 -5.9675598 14.8809
-0.36239201 -4.4988098 10.3999
-0.287938 -4.47755 10.3457
-0.25837699 -4.4582701 10.2737
-0.241557 -4.45647 10.2717
-0.16535699 -4.4181099 10.1259
-0.0852926 -4.4340301 10.1789
-0.041177198 -4.4354 10.1565
0.051863998 -4.4582601 10.1916
0.66214299 -5.0012102 11.7818
0.70056301 -4.99858 11.7788
-4.6122298 -5.61025 14.3204
-4.4876099 -5.5471702 14.1271
-4.4066801 -5.5246801 14.0502
-4.36096 -5.5089102 13.9977
-4.3383799 -5.5097299 14.001
-4.2760601 -5.5020599 13.97
-4.2446198 -5.4882798 13.9396
-4.2063198 -5.4863601 13.9166
-4.1720901 -5.47858 13.8906
-4.1375399 -5.4742298 13.869
-4.09583 -5.4688702 13.8356
-4.0950398 -5.47263 13.874
-4.0169802 -5.44842 13.7945
-3.9582 -5.4436898 13.7708
-3.9254401 -5.4382701 13.7494
-3.90189 -5.4504499 13.7673
-3.8394101 -5.4092498 13.6492
-3.79546 -5.4349399 13.726
-3.7773199 -5.4500399 13.7564
-3.74542 -5.4463 13.7382
-3.7237699 -5.4565601 13.7563
-3.67465 -5.4809299 13.8251
-3.62901 -5.4870701 13.8366
-3.5901501 -5.5012202 13.8707
-3.56148 -5.5047402 13.8684
-3.5380199 -5.5065598 13.8713
-3.4995799 -5.4882998 13.8204
-3.4434199 -5.5037298 13.8664
-3.36783 -5.4772201 13.7807
-3.3352399 -5.4714298 13.7573
-3.30792 -5.4734001 13.7541
-3.28125 -5.47263 13.7477
-2.9749801 -5.8362298 14.7345
-1.7865 -5.89785 14.8001
-1.67901 -5.9022698 14.8376
-1.48155 -5.9298801 14.8939
-1.38694 -5.9422798 14.8814
-0.407592 -4.4700599 10.4455
-0.247263 -4.3984799 10.1989
-0.21360201 -4.3744302 10.1043
-0.212359 -4.3966198 10.1946
-0.171442 -4.3709998 10.0766
-0.170645 -4.3766298 10.1325
-0.12927499 -4.3618999 10.0819
-0.085760199 -4.3654599 10.0654
-0.064828597 -4.36374 10.0514
0.62541598 -4.9002399 11.609
0.64565402 -4.8937101 11.5895
0.68893301 -4.9089298 11.6197
0.72813398 -4.9052401 11.6098
0.770522 -4.9249001 11.6559
-4.5620298 -5.53793 14.1845
-4.4895201 -5.5104098 14.1125
-4.13307 -5.4361 13.8424
-4.00561 -5.40625 13.7515
-3.9226 -5.4085698 13.7368
-3.89101 -5.4010801 13.7138
-3.86865 -5.4018002 13.7165
-3.8462901 -5.4025102 13.7191
-3.78667 -5.4030199 13.7009
-3.62165 -5.4493599 13.8046
-3.5586801 -5.46522 13.8403
-3.5369301 -5.4649 13.8425
-3.5143399 -5.4656301 13.845
-3.4683001 -5.4681602 13.8504
-3.4301901 -5.4594498 13.8143
-3.2859499 -5.43572 13.7344
-3.2190199 -5.4748201 13.8009
-0.371225 -4.4605999 10.4154
-0.287938 -4.4281402 10.3141
-0.20662899 -4.4001799 10.2243
-0.165757 -4.3796701 10.1169
0.122144 -4.4155502 10.2194
0.45620099 -4.8908401 11.4446
0.63837802 -4.9349399 11.7195
0.69969898 -4.9355898 11.7159
0.75835699 -4.9331398 11.7115
0.807616 -4.9530902 11.7395
-4.75633 -5.5728002 14.3995
-4.5904102 -5.5248699 14.2402
-4.4601102 -5.4632902 14.0398
-4.4278498 -5.4533601 14.0143
-4.3945298 -5.44699 13.9923
-4.2560501 -5.4134798 13.8842
-4.2244101 -5.4043999 13.8599
-4.1880698 -5.40242 13.8393
-4.16855 -5.4157901 13.8648
-4.1170502 -5.3864298 13.7822
-4.0592399 -5.3831401 13.7622
-4.0060101 -5.3724298 13.7376
-3.94526 -5.3792 13.7275
-3.91833 -5.37082 13.71
-3.88622 -5.37147 13.6983
-3.7911401 -5.3670998 13.6894
-3.7636299 -5.38129 13.7046
-3.7334099 -5.3723402 13.6808
-3.7163999 -5.3858299 13.7107
-3.69401 -5.3865299 13.7132
-3.6738 -5.3970098 13.7338
-3.6208401 -5.4005098 13.7651
-3.5780201 -5.4186502 13.7991
-3.5553601 -5.4216099 13.8049
-3.5349 -5.4391298 13.8366
-3.51069 -5.4312301 13.8232
-3.4867101 -5.4395399 13.8354
-3.43503 -5.4347 13.8205
-3.39219 -5.4081998 13.7488
-3.36797 -5.40628 13.7444
-3.3324201 -5.4080501 13.728
-3.3031299 -5.40412 13.7124
-3.2779901 -5.40342 13.7082
-3.2493801 -5.3929501 13.6831
-3.21433 -5.4194698 13.7433
-2.6070399 -5.9798598 15.3416
-2.1874101 -6.0325699 15.4685
-2.0448799 -6.00529 15.3026
-1.98778 -6.0028 15.3312
-1.83524 -5.8931098 14.9785
-1.6027499 -5.8593602 14.8488
-1.51043 -5.8778701 14.9443
-0.45079601 -4.4574399 10.5115
-0.43936199 -4.43782 10.4864
-0.33658701 -4.3840499 10.2917
-0.32280701 -4.3786602 10.2897
-0.29365301 -4.3806701 10.2641
-0.218648 -4.34059 10.1632
-0.173326 -4.3257999 10.0563
-0.170286 -4.33394 10.1121
-0.13588899 -4.3119702 10.0174
-0.133019 -4.3207502 10.0754
-0.095248602 -4.3165498 10.0568
0.41763601 -4.7686701 11.1779
0.65025097 -4.84442 11.5471
0.68405902 -4.8421102 11.5561
0.72830898 -4.8420501 11.5408
0.80207598 -4.8636098 11.6154
-3.40907 -5.4401999 13.8627
-0.43815401 -4.4643502 10.5763
-0.38007599 -4.4223399 10.431
-0.33483499 -4.4102001 10.3799
-0.176621 -4.3393202 10.1319
-0.167501 -4.3494401 10.1763
-0.0508692 -4.3277602 10.0929
0.054462899 -4.3438802 10.1254
0.77779502 -4.8807998 11.675
-4.5356102 -5.3945599 14.0488
-3.3571601 -5.33992 13.6977
-0.39195299 -4.3780298 10.4041
-0.218996 -4.3022099 10.1544
-0.17745601 -4.27808 10.0362
-0.169195 -4.2870998 10.0802
-0.147462 -4.2811699 10.0547
-0.13135999 -4.27634 10.0468
-0.0947804 -4.2680998 10.0219
-0.0233883 -4.2600002 9.9476004
-0.019905001 -4.2628198 9.99189
0.018884599 -4.2662201 9.9867496
0.053165998 -4.2643099 9.9818697
0.10537 -4.3091698 10.0858
0.148844 -4.3178301 10.1304
0.298237 -4.3369598 10.248
0.64594901 -4.7753201 11.4748
0.677333 -4.7687702 11.4783
0.72185898 -4.7741499 11.4767
0.76317197 -4.7853599 11.5014
-4.61198 -5.4145002 14.1515
-4.5314898 -5.41359 14.1065
-4.4533601 -5.3948898 14.0382
-4.42275 -5.39996 14.0366
-4.3653898 -5.3515801 13.9197
-4.3347201 -5.3421602 13.8965
-4.3048801 -5.3523002 13.9028
-4.2539201 -5.3658299 13.918
-4.1877098 -5.3519902 13.8712
-4.14856 -5.3232698 13.8068
-4.1139698 -5.3164001 13.7809
-4.0668201 -5.3249202 13.7591
-4.0599599 -5.3235002 13.7815
-3.99897 -5.3214302 13.7581
-3.9470301 -5.3182702 13.7462
-3.91943 -5.3134398 13.7329
-3.88167 -5.2946 13.6835
-3.8559401 -5.3049998 13.6955
-3.84197 -5.3278599 13.7439
-3.78281 -5.3102198 13.6988
-3.75172 -5.30689 13.6821
-3.73225 -5.30937 13.6916
-3.70523 -5.3132801 13.6919
-3.68084 -5.32339 13.7057
-3.6612599 -5.3302498 13.7218
-3.60711 -5.3432598 13.7662
-3.5669501 -5.35182 13.7896
-3.5513401 -5.3612099 13.8163
-3.53247 -5.3727498 13.8413
-3.5101399 -5.3742299 13.8454
-3.4892099 -5.3611698 13.8289
-3.43644 -5.3801098 13.8495
-3.36466 -5.3506799 13.7639
-3.33406 -5.3600702 13.7672
-3.29983 -5.3428202 13.7225
-3.2765 -5.3512502 13.7357
-3.2472301 -5.3630099 13.7448
-2.65453 -5.9731102 15.5117
-2.6202199 -5.9565101 15.4668
-2.13711 -5.9974799 15.5129
-2.06428 -5.9878001 15.4565
-2.00699 -5.98282 15.4815
-1.83565 -5.8714099 15.0888
-1.61762 -5.83531 14.9824
-0.38392901 -4.3680501 10.354
-0.208395 -4.3139501 10.1895
-0.169403 -4.2988701 10.1445
-0.121341 -4.2922602 10.0929
-0.093845896 -4.2830701 10.0437
-0.086741202 -4.2904 10.0883
-0.051410299 -4.2894201 10.0836
-0.0169966 -4.2787199 10.0107
0.092993297 -4.3088799 10.1111
0.652843 -4.7954102 11.5641
0.69602603 -4.8087401 11.5897
0.73826498 -4.81113 11.5875
0.77765602 -4.8092699 11.5817
0.806925 -4.8208299 11.5856
-4.1110201 -5.2868099 13.7685
-3.76354 -5.25736 13.6258
-3.65605 -5.27494 13.6656
-3.2482901 -5.3196001 13.715
-2.63129 -5.9465599 15.516
-2.5920401 -5.9465199 15.4936
-2.5643401 -5.95123 15.4993
-2.1579499 -5.9950099 15.5964
-0.22515801 -4.2473302 10.0784
-0.21935301 -4.2638698 10.1455
-0.18011899 -4.23734 10.0273
-0.142382 -4.2367601 10.063
-0.097104803 -4.2149401 9.9832697
-0.063065097 -4.2144198 9.9821701
0.168245 -4.2841301 10.1244
0.21733201 -4.3137498 10.2061
0.25002199 -4.3283901 10.2493
0.68086702 -4.72226 11.4446
0.720397 -4.7238898 11.4468
0.74088597 -4.7226701 11.44
0.75824797 -4.71977 11.4376
0.78529501 -4.7280102 11.4382
-4.8783698 -5.4393601 14.4196
-4.7487001 -5.39079 14.2418
-4.67629 -5.3653798 14.1733
-4.60464 -5.3555799 14.1279
-4.5153298 -5.31356 14.0105
-4.4207101 -5.2939801 13.9172
-4.37989 -5.2730598 13.863
-4.3501401 -5.2831402 13.8693
-4.31955 -5.2737999 13.8461
-4.29389 -5.27355 13.843
-4.2288799 -5.2607598 13.7991
-4.16078 -5.24861 13.7513
-4.1305599 -5.2463899 13.7384
-4.09338 -5.2259998 13.6884
-3.98435 -5.2255502 13.6651
-3.92851 -5.24616 13.6824
-3.9002399 -5.2282801 13.6482
-3.8750701 -5.22932 13.647
-3.8210101 -5.2263799 13.6313
-3.77108 -5.2259898 13.6254
-3.7407 -5.2163401 13.5999
-3.7121501 -5.2219601 13.6003
-3.68646 -5.21065 13.5791
-3.67116 -5.2376599 13.6324
-3.6186399 -5.2329502 13.6157
-3.58846 -5.25913 13.681
-3.5692999 -5.2509999 13.6746
-3.5385001 -5.2825098 13.748
-3.5137601 -5.2764902 13.7364
-3.4711499 -5.2891798 13.7625
-3.42554 -5.29075 13.7666
-3.3886399 -5.2768602 13.7232
-3.3627801 -5.27704 13.7193
-3.32342 -5.2753201 13.691
-3.28771 -5.2621799 13.65
-3.2651 -5.2653999 13.6559
-2.6384499 -5.9317398 15.5498
-2.5865901 -5.9323802 15.5509
-2.48439 -5.9509401 15.6321
-2.20976 -5.9913602 15.6865
-2.17084 -5.98138 15.6444
-1.90908 -5.9271102 15.4381
-1.64439 -5.8176498 15.101
-1.30604 -5.8947201 15.3392
-0.308999 -4.3200102 10.3595
-0.25615701 -4.27563 10.2149
-0.21139801 -4.2749801 10.1866
-0.12712 -4.2376099 10.0612
-0.091137402 -4.2374902 10.0564
0.123886 -4.2650199 10.0971
0.65112603 -4.7327499 11.5013
0.68881297 -4.73739 11.5182
0.732252 -4.7378101 11.5059
0.79517603 -4.7565999 11.547
0.81005001 -4.75067 11.544
0.851381 -4.7708302 11.5968
-4.9707799 -5.43502 14.5063
-4.8401699 -5.3819399 14.322
-4.7451 -5.3502202 14.2143
-4.6378999 -5.3087902 14.0748
-4.5734701 -5.3086901 14.0528
-4.49016 -5.27843 13.9601
-4.41153 -5.2526999 13.8796
-4.3372002 -5.23032 13.8092
-4.2632999 -5.2130399 13.7461
-4.2230802 -5.2239599 13.7721
-4.15588 -5.2103901 13.7231
-4.12497 -5.2053299 13.7049
-4.0762701 -5.1847801 13.6377
-4.0199599 -5.17905 13.5809
-4.0338502 -5.2032399 13.6714
-3.9717 -5.1907201 13.6299
-3.91659 -5.1806898 13.6021
-3.8781099 -5.1648898 13.5556
-3.8629 -5.19064 13.6062
-3.84132 -5.1953201 13.6157
-3.81095 -5.18361 13.5872
-3.7869501 -5.1896801 13.5951
-3.7505801 -5.1505499 13.5155
-3.73913 -5.1879601 13.5902
-3.70945 -5.1735301 13.5581
-3.65799 -5.1769199 13.5552
-3.61411 -5.1964202 13.5887
-3.5696001 -5.19766 13.5931
-3.5441799 -5.2128701 13.6489
-3.5334599 -5.2369099 13.7059
-3.51355 -5.2344098 13.7071
-3.48663 -5.2217598 13.6813
-3.4684701 -5.2530298 13.7387
-3.4061201 -5.2327399 13.6816
-3.38445 -5.2399602 13.6955
-3.3490701 -5.23101 13.6619
-3.3136699 -5.2237802 13.6308
-3.2834599 -5.2186999 13.6112
-3.2411699 -5.2446299 13.659
-2.66975 -5.9201798 15.6299
-2.63411 -5.9201698 15.614
-2.60906 -5.9212098 15.6175
-2.5560701 -5.9220901 15.6174
-2.48757 -5.94104 15.6698
-2.2619801 -5.9875898 15.7769
-2.18592 -5.96488 15.6907
-2.12374 -5.9605999 15.6646
-2.0309 -5.9409599 15.5987
-1.99343 -5.92977 15.5555
-1.90834 -5.9025998 15.4403
-0.33024099 -4.26823 10.2935
-0.18505301 -4.20329 10.0859
-0.140231 -4.18326 10.0118
-0.066553801 -4.1570802 9.8888302
-0.060017001 -4.1752701 9.9600096
0.0063941199 -4.1575098 9.9224997
0.084468298 -4.1845102 9.9578304
0.30792099 -4.2774601 10.2419
0.38613901 -4.47645 10.7404
0.67194903 -4.6521301 11.3799
0.71580601 -4.6514001 11.3616
0.73865199 -4.6605401 11.3771
0.79435599 -4.6655598 11.3982
-4.6428699 -5.2736201 14.0663
-4.0132899 -5.1470499 13.5928
-3.69276 -5.1455402 13.5258
-2.4945199 -5.9261098 15.7044
-1.78749 -5.6840701 16.273399
-0.139056 -4.1770201 9.9852304
-0.12761299 -4.19945 10.052
-0.089735501 -4.1816702 10.001
-0.0603421 -4.1753602 9.9516296
-0.0581958 -4.1863999 10.0194
-0.0206907 -4.1686201 9.9682503
0.68970501 -4.6902199 11.4903
0.73065901 -4.6890802 11.4806
0.813658 -4.6951399 11.4822
0.849024 -4.6991701 11.5053
-4.8435798 -5.27529 14.1457
-4.7610002 -5.2430701 14.0863
-4.68293 -5.2393398 14.0408
-4.6012402 -5.2091198 13.951
-4.4615502 -5.1929402 13.8664
-4.3887801 -5.1788201 13.8103
-4.3010998 -5.1376901 13.6925
-4.1693902 -5.1068702 13.5924
-4.1152301 -5.10676 13.5811
-4.03965 -5.0770502 13.4942
-4.03969 -5.1180501 13.5894
-3.9997001 -5.1020799 13.5408
-3.9530201 -5.1063499 13.5466
-3.8881199 -5.0900502 13.4941
-3.86166 -5.0817599 13.4763
-3.8422 -5.11731 13.5356
-3.7825401 -5.08532 13.4663
-3.7481101 -5.1123099 13.525
-3.7184899 -5.0985198 13.4937
-3.68101 -5.07863 13.4409
-3.6611199 -5.0924702 13.4668
-3.63062 -5.0847201 13.4431
-3.61377 -5.1022301 13.4795
-3.55445 -5.1138701 13.5121
-3.50617 -5.1718998 13.6715
-3.48279 -5.1800399 13.6841
-3.4555399 -5.1761599 13.6715
-3.42856 -5.1743102 13.6625
-3.4004099 -5.1494699 13.6148
-3.32619 -5.1405301 13.5557
-3.30288 -5.1491899 13.5691
-3.27877 -5.16887 13.5989
-3.23577 -5.1679902 13.6023
-2.66539 -5.8804498 15.6916
-2.6268499 -5.8867202 15.6832
-2.57215 -5.89463 15.6942
-2.5095799 -5.9054499 15.7415
-2.2923801 -5.9767199 15.9147
-2.2741499 -5.9657102 15.9063
-2.20081 -5.9383101 15.7705
-2.0576899 -5.9208899 15.7132
-2.03333 -5.92064 15.7156
-1.97577 -5.9165602 15.6974
-1.9232 -5.8987002 15.6593
-1.85007 -5.9035301 15.6776
-1.70918 -5.8219099 15.3912
-1.58532 -5.8116698 15.3758
-1.51766 -5.79672 15.3124
-1.32932 -5.82304 15.3971
-1.28578 -5.8641 15.4538
-0.320227 -4.2075601 10.2091
-0.233395 -4.1623302 10.0609
-0.144385 -4.15098 10.0257
-0.109764 -4.1308198 9.9305601
-0.107192 -4.1424899 9.9976101
-0.067475997 -4.1213999 9.8849802
-0.066625997 -4.1283398 9.9463701
-0.0275623 -4.1224999 9.9180698
0.0110589 -4.1187301 9.8954401
0.043484099 -4.1221299 9.9075499
0.67094499 -4.5962701 11.3312
0.71456701 -4.6033802 11.3357
0.77020198 -4.6015801 11.3362
0.793549 -4.60571 11.3356
0.83331698 -4.6241899 11.3867
-4.62286 -5.2104101 14.0184
-4.1881299 -5.1037302 13.6499
-4.01967 -5.1124001 13.6211
-3.7456 -5.0876398 13.5192
-3.5392399 -5.16818 13.6822
-0.26881 -4.1957402 10.1759
-0.218897 -4.19029 10.1693
-0.094154097 -4.14572 10.0073
0.0165704 -4.1331401 9.9533701
0.175574 -4.19662 10.094
0.253905 -4.2197499 10.1774
0.72388601 -4.6147299 11.3956
0.74642801 -4.6178498 11.3947
0.79326099 -4.6261101 11.3933
-4.1859498 -5.0002198 13.4612
-4.1229701 -4.9960399 13.4305
-3.80862 -5.0180402 13.4051
-3.3176401 -5.0552201 13.4796
-0.32306001 -4.19699 10.3153
-0.28127301 -4.16149 10.2172
-0.229506 -4.1385899 10.1192
-0.196362 -4.11588 10.0238
-0.147122 -4.1103702 10.0166
-0.109525 -4.1073799 9.9998703
-0.071594797 -4.09025 9.9486198
-0.036816001 -4.07623 9.8647699
-0.034931801 -4.0768299 9.9088697
0.0071088299 -4.0731802 9.8764296
0.0415815 -4.0734701 9.8749199
0.075471401 -4.0715199 9.8695698
0.17492899 -4.1217198 10.001
0.195327 -4.1307702 10.014
0.66736901 -4.5424299 11.2952
0.71197301 -4.54386 11.2796
0.73432302 -4.5469298 11.2785
0.75406498 -4.54703 11.2767
0.824736 -4.5469198 11.2943
-4.7002001 -5.11413 13.9232
-4.6518698 -5.1408801 13.9619
-4.6135402 -5.1410398 13.9424
-4.4699202 -5.06604 13.7317
-4.2923498 -5.0107298 13.5315
-4.1026802 -5.0416298 13.5713
-4.0742102 -5.0404201 13.5617
-4.0184202 -4.9865799 13.4327
-3.9857299 -4.99403 13.4294
-3.8805399 -5.0257401 13.4917
-3.8635001 -5.0391102 13.521
-3.8280499 -5.0300999 13.4884
-3.8106201 -5.0414901 13.5142
-3.78234 -5.0402398 13.5042
-3.7246799 -5.0297999 13.4701
-3.7074001 -5.04319 13.4994
-3.67643 -5.0283198 13.464
-3.6280601 -5.0422401 13.4815
-3.6092601 -5.0387402 13.4824
-3.5778999 -5.0136299 13.4299
-3.54041 -5.04351 13.4895
-3.5277901 -5.0508499 13.5172
-3.52337 -5.0851998 13.6006
-3.49615 -5.10218 13.6574
-3.44892 -5.1064801 13.6627
-3.38921 -5.0938101 13.6207
-3.3577001 -5.08887 13.5991
-3.3253 -5.0839901 13.5761
-3.29667 -5.0936799 13.5826
-3.26337 -5.0817699 13.5465
-2.6505899 -5.8487802 15.8049
-2.5495 -5.8702302 15.8978
-2.30038 -5.94489 16.0285
-2.26265 -5.9291701 16.023001
-2.1947701 -5.9141698 15.9666
-2.1319301 -5.9181499 16.003201
-2.01583 -5.8891001 15.878
-1.95305 -5.8758402 15.832
-1.89131 -5.8731198 15.8095
-1.85242 -5.8545399 15.7472
-1.80434 -5.84201 15.6806
-1.79333 -5.8306398 15.6836
-1.7455699 -5.82054 15.6222
-1.68484 -5.8009901 15.5635
-1.61537 -5.7762799 15.4768
-1.6123101 -5.7974901 15.5645
-1.56679 -5.7737398 15.4761
-1.53283 -5.7705798 15.4535
-1.50269 -5.7691398 15.4417
-1.4081 -5.7737498 15.466
-1.39793 -5.7865 15.5233
-1.39733 -5.7939401 15.5867
-0.183084 -4.1367302 10.1207
-0.111546 -4.1123199 10.008
-0.0966295 -4.1087499 10.0057
-0.0575932 -4.0929499 9.9543104
-0.0219632 -4.0927801 9.94911
0.0136505 -4.0926099 9.9438896
0.051486202 -4.0950699 9.9384499
0.084829003 -4.0922799 9.9333601
0.175396 -4.12852 10.0589
0.21745899 -4.1587701 10.1129
0.24609099 -4.1665101 10.0979
0.68568599 -4.5687599 11.3708
0.72711402 -4.5686002 11.3611
0.76408398 -4.5725098 11.3776
0.79165602 -4.5685501 11.3391
0.83984798 -4.5708699 11.3767
-4.5515699 -4.9987898 13.6508
-4.51086 -5.0157299 13.6843
-3.28495 -5.0226498 13.4862
-3.22929 -5.0360699 13.5287
-2.66959 -5.8281498 15.849
-2.27319 -5.9088802 16.055401
-1.89829 -5.8567801 15.8442
-1.75377 -5.8059802 15.6628
-0.200628 -4.09238 10.1055
-0.15863299 -4.0892501 10.0771
-0.11176 -4.0552902 9.9618597
-0.065067902 -4.0463099 9.9042702
-0.0337248 -4.0336399 9.8808298
0.0046388698 -4.03265 9.8649101
0.038601302 -4.0331702 9.8652697
0.142113 -4.04807 9.8951998
0.157492 -4.05443 9.9158201
0.70686603 -4.4864001 11.2362
0.74775702 -4.4951 11.2533
0.78430998 -4.4875798 11.2352
0.86913401 -4.5212498 11.3113
-4.8519802 -5.0903502 14.0351
-3.8309901 -4.9296398 13.3757
-3.7955301 -4.9188499 13.3398
-3.7350399 -4.91259 13.307
-3.7090399 -4.92872 13.3615
-3.6844499 -4.9509802 13.3932
-3.66416 -4.9633002 13.4162
-3.6042199 -4.93329 13.3467
-3.5876801 -4.9523802 13.3862
-3.5671899 -4.9533501 13.3912
-3.4848199 -5.0234098 13.5885
-3.44963 -5.01229 13.5513
-3.4318099 -5.0257902 13.5811
-3.36427 -5.0004401 13.5054
-3.34045 -5.0120602 13.5226
-3.3131399 -4.9916902 13.4822
-3.2801099 -4.9965401 13.4735
-2.6417501 -5.8194499 15.9264
-2.5829999 -5.83427 15.9901
-2.3085001 -5.9233298 16.2019
-2.2232101 -5.8888898 16.075899
-2.12941 -5.8694601 16.010799
-2.09267 -5.8658099 15.9851
-2.04233 -5.86655 15.991
-1.97729 -5.86374 15.9634
-1.89043 -5.8460302 15.9116
-1.85876 -5.8382101 15.8851
-1.78082 -5.8088799 15.7757
-1.72119 -5.7894802 15.7198
-1.65319 -5.7652001 15.6372
-1.63301 -5.7684102 15.6546
-1.5851001 -5.7540202 15.5821
-1.53201 -5.7546601 15.5804
-1.4163899 -5.7463698 15.5376
-1.43706 -5.7579098 15.6506
-0.18426999 -4.0952001 10.1058
-0.15008 -4.0719299 10.0038
0.081301898 -4.0418401 9.9005699
0.197809 -4.0872598 10.0227
0.25475499 -4.1090598 10.0621
0.28028101 -4.07265 9.94065
0.67921603 -4.5001202 11.2998
0.71903002 -4.5097399 11.3237
-4.9035902 -5.0570598 14.0266
-4.5590301 -4.9075499 13.5323
-4.4065599 -4.8821201 13.4113
-4.2430601 -4.82443 13.2238
-3.97106 -4.8035598 13.1246
-3.86554 -4.8642902 13.2605
-3.80375 -4.8491302 13.212
-3.78811 -4.8912401 13.3215
-3.7242899 -4.8753901 13.2685
-3.69029 -4.8828702 13.2972
-3.63749 -4.8812399 13.2828
-3.5872099 -4.8765702 13.2673
-3.5653601 -4.8770599 13.269
-3.56459 -4.90623 13.3491
-3.51877 -4.9368701 13.3969
-3.46597 -4.9821301 13.5298
-3.4068201 -4.9755001 13.4977
-3.34708 -4.9577599 13.4461
-3.3227601 -4.9295001 13.3974
-3.2960899 -4.96 13.4407
-2.3220201 -5.8954301 16.2237
-2.2539599 -5.8805599 16.1684
-2.1802101 -5.8827901 16.183901
-2.0606 -5.8546901 16.0555
-2.02385 -5.8510599 16.0298
-2.0000999 -5.8495002 16.0312
-1.92792 -5.84092 15.9786
-1.89982 -5.8357301 15.9643
-1.88548 -5.8313098 15.9762
-1.83865 -5.8190298 15.9129
-1.80611 -5.81425 15.8912
-1.73843 -5.7874799 15.8051
-1.66412 -5.7610502 15.7064
-1.60176 -5.74229 15.6455
-1.5505199 -5.7404099 15.642
-1.43593 -5.7486801 15.6875
-1.43182 -5.7591701 15.7517
-1.42644 -5.7690301 15.8119
-0.295367 -4.1100998 10.2937
-0.200296 -4.0552101 10.0964
-0.16823301 -4.0320501 10.0007
-0.0411206 -3.99892 9.8975401
-0.0050197602 -3.97945 9.7943602
0.00197452 -3.9904101 9.8495197
0.0261261 -3.9782901 9.7981997
0.071900301 -3.9846101 9.8269196
0.138356 -3.9977801 9.8621302
0.19508199 -4.0109 9.8768997
0.21133 -4.0271802 9.9209805
0.24000201 -4.0190401 9.9155903
0.341526 -4.2442002 10.4105
0.39508399 -4.3624601 10.7312
0.68375999 -4.4264998 11.1817
0.70419598 -4.4275498 11.18
0.74665302 -4.4492602 11.2312
0.78029603 -4.4341402 11.1987
0.82263499 -4.4465799 11.2229
-3.78758 -4.81565 13.1711
-3.63516 -4.8476801 13.2624
-3.5745599 -4.8511801 13.2436
-3.2916999 -4.9180899 13.4028
-3.2558899 -4.9220099 13.3877
-3.2172 -4.96104 13.5
-2.3273799 -5.88202 16.262899
-2.2037799 -5.8692598 16.253901
-2.0759599 -5.8466101 16.123301
-1.9676 -5.8382401 16.1017
-1.92205 -5.8274398 16.0446
-1.82016 -5.79917 15.9425
-1.7061599 -5.79287 15.9599
-0.071850203 -4.0037999 9.8913202
-0.068819202 -4.02244 9.9763603
0.0088915899 -4.0036101 9.9015903
0.030990399 -3.9899099 9.8524303
0.049097199 -3.99966 9.8726702
0.079768799 -4.0032301 9.8907204
0.171095 -4.0334301 9.9468603
0.243072 -4.0430899 9.9595299
0.25056201 -4.0489302 10.0047
0.28514901 -4.0653701 10.0471
0.68072498 -4.4524798 11.2648
0.71769702 -4.45437 11.2742
0.75834298 -4.4536901 11.2641
0.833938 -4.4613099 11.2901
-3.9676001 -4.6463299 12.8203
-3.8951199 -4.6866102 12.9035
-3.8145499 -4.7002501 12.9354
-3.7555301 -4.7697601 13.1206
-3.71944 -4.7516499 13.0714
-3.65938 -4.79846 13.1891
-3.60444 -4.7901602 13.1601
-3.5743401 -4.8047199 13.2058
-3.5281799 -4.8147702 13.2196
-3.50172 -4.8305998 13.2738
-3.44519 -4.8843298 13.4137
-3.40604 -4.8792 13.4151
-3.3333399 -4.8615098 13.3421
-3.30968 -4.8640199 13.3444
-3.2852001 -4.8941898 13.3908
-3.26509 -4.8863802 13.382
-2.6320801 -5.7846899 16.092501
-2.6021399 -5.77842 16.118401
-2.3447001 -5.8833899 16.3531
-2.28474 -5.8603902 16.294399
-2.2234299 -5.8357401 16.229099
-2.17189 -5.8365502 16.188101
-2.0804701 -5.8298302 16.1539
-1.97174 -5.82551 16.1406
-1.97569 -5.8441401 16.2348
-1.91913 -5.8099098 16.107599
-1.86768 -5.8069201 16.056601
-1.8437099 -5.80093 16.047899
-1.7704099 -5.78058 15.9661
-1.71657 -5.7865701 16.0249
-1.45462 -5.7273302 15.7949
-1.46852 -5.76267 15.9974
-0.30587399 -4.0802202 10.3324
-0.264761 -4.0358 10.165
-0.221728 -4.0137801 10.0899
-0.19176599 -4.01647 10.1083
-0.169393 -4.0018501 10.0591
-0.074771799 -3.98019 9.9315996
-0.00221134 -3.9460299 9.8330402
0.0282894 -3.9498301 9.8017597
0.035426501 -3.9430699 9.8134604
0.072701298 -3.9443901 9.8053503
0.094097003 -3.94418 9.79076
0.109414 -3.9414501 9.7880402
0.130567 -3.9546101 9.8080301
0.172758 -3.95994 9.8464603
0.23903701 -3.98124 9.9055004
0.27842399 -3.9944999 9.9234104
0.70025998 -4.3698602 11.1302
0.759121 -4.37922 11.1513
0.77973002 -4.3813801 11.1523
0.85412103 -4.3894 11.1812
0.89285702 -4.4060998 11.2315
-3.6310999 -4.8253102 13.2929
-3.4228599 -4.9079299 13.5268
-3.30211 -4.8952098 13.4579
-2.2909501 -5.8456001 16.3323
-2.1907899 -5.8193798 16.242901
-0.28767699 -4.0822902 10.3275
-0.26149201 -4.0609899 10.254
-0.155975 -4.0085602 10.077
-0.084844202 -3.97859 9.99683
-0.0306332 -3.9716001 9.92064
-0.0022650801 -3.9511299 9.8362703
0.00037702799 -3.9661801 9.9155598
0.077702001 -3.95487 9.8576899
0.099818103 -3.95999 9.8545198
0.14511999 -3.96889 9.89328
0.35569501 -4.2589898 10.5439
