# .PCD v0.7 - Point Cloud Data file format
VERSION 0.7
FIELDS x y z
SIZE 4 4 4
TYPE F F F
COUNT 1 1 1
WIDTH 1606
HEIGHT 1
VIEWPOINT 0 0 0 1 0 0 0
POINTS 1606
DATA ascii
2.2827001 -0.30418301 19.729601
2.3092 -0.30465999 19.745501
2.3354299 -0.30524299 19.76
2.3627701 -0.30625999 19.785801
2.39078 -0.30631801 19.8083
2.4188199 -0.30721799 19.837299
2.4439099 -0.30843601 19.8473
2.4704399 -0.30996999 19.8696
2.49721 -0.31057799 19.8862
2.52527 -0.311041 19.9102
2.55317 -0.31173599 19.9345
2.57985 -0.31274 19.9524
2.6096301 -0.31310901 19.9862
2.6398699 -0.31350499 20.022699
2.6688099 -0.31445599 20.054001
2.69842 -0.31637999 20.096201
2.7296801 -0.31803599 20.1465
-1.2261 -0.23304699 20.129101
-1.1971 -0.230216 20.1187
-1.17102 -0.23085 20.080299
-1.1481 -0.233073 20.069
-1.12379 -0.23413099 20.0571
-1.0959899 -0.232884 20.026501
-1.0703501 -0.232777 20.014
-1.04301 -0.231526 19.992201
-1.0169801 -0.23120099 19.9744
-0.99066901 -0.230404 19.9632
-0.965289 -0.230555 19.9457
-0.93973601 -0.23071399 19.921301
-0.914994 -0.231086 19.9126
-0.89126301 -0.232151 19.9093
-0.864407 -0.231163 19.8827
-0.83734101 -0.22969501 19.8661
-0.81368297 -0.230767 19.862801
-0.790034 -0.23184501 19.859501
-0.76481199 -0.231774 19.847099
-0.73804802 -0.230562 19.8256
-0.71158099 -0.22933701 19.8155
-0.688012 -0.230425 19.812099
-0.66455603 -0.231511 19.8144
-0.64099699 -0.232609 19.811001
-0.61744601 -0.233711 19.8076
-0.592659 -0.23365 19.812
-0.567864 -0.233594 19.8165
-0.54285598 -0.23330501 19.825899
-0.51825899 -0.233492 19.8253
-0.49598899 -0.23553599 19.8391
-0.47166201 -0.235717 19.8689
-0.44822299 -0.236845 19.8822
-0.42241099 -0.235982 19.8946
-0.400087 -0.237947 19.942301
-0.37518299 -0.237927 19.960699
-0.35211599 -0.23941401 20.014799
-0.327526 -0.239778 20.035999
-0.304396 -0.24142399 20.0804
-0.27789101 -0.240255 20.098301
-0.255862 -0.243026 20.1467
-0.230179 -0.242652 20.1535
-0.206101 -0.243876 20.218599
-0.18195499 -0.24511001 20.2665
-0.157601 -0.24636599 20.3321
-0.12878899 -0.244332 20.459999
-0.108162 -0.248953 20.499399
-0.017710101 -0.28495401 22.603399
0.064266197 -0.28668499 22.540701
0.093674198 -0.28554901 22.533001
0.181354 -0.28212699 22.489201
0.355057 -0.275359 22.381701
0.530159 -0.27975801 21.9533
0.59351099 -0.27257901 21.9566
0.61858499 -0.27405 21.937
0.64466798 -0.27559301 21.9436
0.67043501 -0.278503 21.976601
0.70310599 -0.27546 22.012199
1.86506 -0.325941 25.1374
1.89562 -0.32497501 25.1134
1.68734 -0.266826 20.1094
1.70424 -0.273 20.0935
1.72831 -0.270778 20.056999
1.75131 -0.27101099 20.0375
1.7919 -0.27370101 19.9716
1.8147399 -0.273938 19.9522
1.83845 -0.27172899 19.916201
1.87852 -0.27441001 19.851101
1.90157 -0.27342999 19.8237
1.92512 -0.272484 19.801701
1.94608 -0.273882 19.7801
1.9699399 -0.27172801 19.750099
1.9903899 -0.274342 19.736799
2.0108199 -0.27695799 19.7234
2.0337601 -0.27723801 19.7097
2.0613599 -0.27406701 19.7036
2.0842299 -0.27435201 19.689899
2.1075201 -0.27564999 19.6891
2.1313801 -0.276243 19.686501
2.15523 -0.27683899 19.684
2.1784999 -0.27814901 19.6831
2.2040601 -0.27824599 19.689699
2.2300301 -0.27783999 19.695101
2.25669 -0.279046 19.7192
2.28176 -0.28027701 19.731001
2.3087599 -0.28092799 19.7523
2.3352699 -0.280848 19.763599
2.3626201 -0.28025201 19.7766
2.38872 -0.28242299 19.8025
2.4168501 -0.282796 19.8283
2.44396 -0.282125 19.8381
2.46873 -0.28547201 19.8624
2.4974201 -0.28572199 19.8899
2.5248201 -0.28535199 19.9032
2.5514801 -0.28688499 19.925501
2.57939 -0.28841001 19.955999
2.6070299 -0.28814101 19.9708
2.63866 -0.28924 20.0224
2.66573 -0.28959 20.037001
2.6963301 -0.29164499 20.087299
2.72649 -0.29284701 20.127701
2.75579 -0.293163 20.155399
-1.2276599 -0.209149 20.1299
-1.19785 -0.20602401 20.1103
-1.17237 -0.20665701 20.085899
-1.14838 -0.208211 20.069
-1.12244 -0.208386 20.044399
-1.09684 -0.20853899 20.0268
-1.0687799 -0.206705 20.0061
-1.04213 -0.20608 19.983101
-1.01579 -0.205293 19.972
-0.98981601 -0.204997 19.954201
-0.96405602 -0.204943 19.933201
-0.94002098 -0.206028 19.9214
-0.91627699 -0.207094 19.9181
-0.889952 -0.206377 19.9004
-0.86325598 -0.205366 19.8804
-0.83860397 -0.20575701 19.8717
-0.81494099 -0.206835 19.868401
-0.78877801 -0.206131 19.8508
-0.76288801 -0.205587 19.834499
-0.73771501 -0.20553599 19.8221
-0.71281302 -0.20546 19.820999
-0.68923801 -0.206554 19.817699
-0.66577703 -0.20763899 19.82
-0.64221197 -0.20874199 19.816601
-0.61761099 -0.208915 19.816099
-0.59386402 -0.209785 19.8176
-0.56906497 -0.209723 19.8221
-0.54405302 -0.20942301 19.831499
-0.51839399 -0.20867699 19.8339
-0.49563301 -0.210169 19.8591
-0.47198999 -0.21100301 19.8799
-0.44833899 -0.21196499 19.8909
-0.42326 -0.211678 19.908701
-0.39995 -0.212754 19.9561
-0.37550399 -0.213099 19.9776
-0.35260201 -0.21472199 20.0215
-0.32760799 -0.21472 20.0415
-0.30488601 -0.21666799 20.0861
-0.278373 -0.21546499 20.115601
-0.25726399 -0.21898501 20.1471
-0.23047499 -0.21768899 20.1964
-0.20599701 -0.218486 20.237801
-0.18303999 -0.220716 20.290199
-0.15846799 -0.221874 20.3911
-0.13402399 -0.223087 20.4396
-0.095558599 -0.25082701 22.673
-0.068704799 -0.25232199 22.687401
0.043336701 -0.253003 22.6236
0.101563 -0.250714 22.559601
0.128022 -0.25221401 22.5529
0.154337 -0.253712 22.5392
0.189533 -0.24737801 22.525999
0.53487301 -0.2494 21.9958
0.56181502 -0.249892 21.992901
0.586712 -0.25137401 21.9666
0.61231703 -0.25289199 21.9601
0.64207 -0.25190899 21.9855
0.67160499 -0.25091901 22.004299
0.70328701 -0.248412 22.0319
1.8667099 -0.29229501 25.131201
1.89899 -0.293414 25.1527
1.66348 -0.246117 20.1782
1.7036 -0.24885499 20.100401
1.72768 -0.246673 20.0639
1.75069 -0.246929 20.0443
1.775 -0.245188 20.016199
1.79495 -0.247382 19.988899
1.81484 -0.249578 19.961599
1.8389601 -0.247835 19.9338
1.8619 -0.246059 19.895201
1.8841701 -0.245894 19.867901
1.90128 -0.250433 19.8412
1.92513 -0.248702 19.813801
1.94766 -0.24897 19.7946
1.97153 -0.246848 19.764601
1.992 -0.24948099 19.7512
2.01459 -0.25098401 19.7456
2.0383 -0.24887 19.7157
2.0608399 -0.250375 19.710199
2.08372 -0.25067601 19.696501
2.1070199 -0.251977 19.6957
2.1308801 -0.25257301 19.693199
2.1547401 -0.25317299 19.690599
2.17802 -0.25448501 19.689699
2.2057199 -0.25355101 19.704399
2.2295699 -0.254161 19.701799
2.25507 -0.25474301 19.7118
2.2818501 -0.25511399 19.7297
2.3062799 -0.25674301 19.739799
2.33482 -0.25611001 19.7621
2.36234 -0.255784 19.778799
2.3888099 -0.25717199 19.8013
2.41488 -0.25840399 19.819201
2.44133 -0.25900099 19.8344
2.4714701 -0.25875899 19.8694
2.49769 -0.25973901 19.8853
2.52426 -0.261152 19.9067
2.55091 -0.26144999 19.919701
2.5772099 -0.263578 19.943899
2.6068201 -0.26316401 19.971399
2.63604 -0.263594 20.0021
2.6652801 -0.26516101 20.040701
2.6942301 -0.266938 20.0783
2.73013 -0.26553401 20.138399
2.7622499 -0.267281 20.195299
-1.22708 -0.183634 20.127001
-1.20109 -0.183705 20.107599
-1.17478 -0.183662 20.083401
-1.14972 -0.184383 20.065399
-1.12208 -0.183358 20.0355
-1.0969 -0.18348999 20.028299
-1.06777 -0.18115699 19.9972
-1.04219 -0.18108299 19.984699
-1.0166301 -0.181016 19.9722
-0.98978603 -0.180223 19.9478
-0.96506298 -0.18095601 19.930099
-0.94130599 -0.182023 19.926901
-0.91755599 -0.18309499 19.9237
-0.88887101 -0.180785 19.892799
-0.86353999 -0.180733 19.8804
-0.839863 -0.181812 19.877199
-0.816194 -0.182896 19.873899
-0.78774399 -0.180599 19.8433
-0.76349503 -0.181236 19.836399
-0.73894799 -0.18165 19.8276
-0.71404099 -0.181576 19.826599
-0.69057399 -0.18265501 19.828899
-0.66699398 -0.183759 19.8255
-0.64342397 -0.18486799 19.8221
-0.61881799 -0.18504199 19.821699
-0.593822 -0.184723 19.8311
-0.568811 -0.184407 19.840599
-0.54419702 -0.18459301 19.840099
-0.52064002 -0.18572301 19.8365
-0.49624699 -0.185857 19.8563
-0.47413799 -0.187819 19.8916
-0.44834101 -0.186919 19.9049
-0.42449701 -0.187677 19.923
-0.401142 -0.18871599 19.964701
-0.374883 -0.18746699 19.9884
-0.353701 -0.190534 20.0312
-0.32771799 -0.18961699 20.060801
-0.305834 -0.19228099 20.0977
-0.28022799 -0.19183899 20.121799
-0.25636399 -0.192927 20.169701
-0.232502 -0.19414 20.1656
-0.208426 -0.195214 20.2309
-0.184202 -0.19630501 20.2964
-0.157003 -0.195208 20.444401
-0.13495401 -0.198442 20.4813
-0.102263 -0.228894 22.7684
-0.072753698 -0.227413 22.6821
-0.043388002 -0.226642 22.689501
-0.0108714 -0.22289 22.6712
0.017013799 -0.22334 22.669399
0.0460071 -0.22273999 22.6619
0.062868297 -0.23267999 22.6415
0.133008 -0.219951 22.5804
0.165327 -0.217263 22.630301
0.186747 -0.22297101 22.608601
0.24373899 -0.220806 22.510099
0.270567 -0.22232801 22.524
0.296918 -0.223858 22.5172
0.53481102 -0.22200499 22.0012
0.562846 -0.220962 21.9807
0.591829 -0.21993101 21.9865
0.61847502 -0.221467 22.006201
0.65025097 -0.217885 22.008699
0.67484897 -0.221624 22.037201
1.86524 -0.261536 25.1257
1.89828 -0.26221201 25.150801
1.92879 -0.264303 25.1639
1.65417 -0.229831 20.1863
1.6789 -0.225629 20.130899
1.7065901 -0.222352 20.117901
1.72913 -0.22139201 20.078699
1.75007 -0.222836 20.0511
1.77438 -0.22112501 20.023001
1.79691 -0.220989 19.9953
1.83736 -0.225061 19.943399
1.86158 -0.22295401 19.912901
1.88472 -0.22204 19.885401
1.9235801 -0.226063 19.8232
1.94612 -0.22634999 19.8041
1.97058 -0.224278 19.7794
1.9930201 -0.22456899 19.7603
2.01406 -0.22724199 19.7523
2.03702 -0.22755399 19.7386
2.0611899 -0.226217 19.7199
2.0853801 -0.225852 19.711
2.1078899 -0.22737101 19.7054
2.1303899 -0.228893 19.6998
2.1542499 -0.229496 19.697201
2.17975 -0.22967599 19.7041
2.20525 -0.229858 19.711
2.2291 -0.230472 19.708401
2.2551 -0.230057 19.7139
2.2815499 -0.229939 19.725201
2.30636 -0.231571 19.738501
2.33483 -0.23139399 19.764299
2.35972 -0.23303799 19.7775
2.38627 -0.232941 19.788799
2.4165101 -0.232702 19.825899
2.44191 -0.234382 19.8423
2.47032 -0.23373701 19.8617
2.4972799 -0.234265 19.879601
2.52389 -0.237229 19.9137
2.5511301 -0.236551 19.923401
2.5790901 -0.237656 19.9517
2.6064701 -0.23916601 19.9785
2.6333599 -0.23911799 19.9897
2.6640201 -0.24078301 20.039301
2.6970301 -0.24025699 20.0877
2.7270701 -0.24076501 20.122999
2.7601299 -0.242456 20.1863
-1.22782 -0.159878 20.1089
-1.19908 -0.157198 20.100201
-1.17575 -0.159513 20.0802
-1.14844 -0.15874401 20.052601
-1.12214 -0.1583 20.037001
-1.09531 -0.157427 20.0203
-1.06861 -0.156854 19.997299
-1.04224 -0.15608899 19.9862
-1.01622 -0.15583199 19.9685
-0.99041599 -0.155826 19.947399
-0.96635002 -0.156938 19.9356
-0.93995601 -0.156257 19.9179
-0.91513199 -0.15645 19.913401
-0.88849002 -0.15569501 19.8892
-0.86479998 -0.156775 19.8859
-0.84111798 -0.157859 19.8827
-0.81491399 -0.15719301 19.865101
-0.78834701 -0.156238 19.8451
-0.76377898 -0.15666001 19.836399
-0.74017799 -0.157756 19.833099
-0.71526599 -0.157684 19.8321
-0.69179302 -0.15876199 19.8344
-0.668208 -0.159872 19.830999
-0.64463103 -0.16098601 19.8276
-0.61923403 -0.160557 19.8235
-0.59502202 -0.160831 19.8367
-0.57000703 -0.160504 19.846201
-0.54538798 -0.16069099 19.8456
-0.51997 -0.16001201 19.858299
-0.49641699 -0.16078299 19.883801
-0.47424799 -0.16292 19.899099
-0.449168 -0.162591 19.9153
-0.425372 -0.163304 19.940701
-0.40235099 -0.16465101 19.9762
-0.37699401 -0.16415501 20.000299
-0.35457999 -0.16616499 20.0369
-0.32811299 -0.16477799 20.071301
-0.30628499 -0.16743 20.111401
-0.279569 -0.16598 20.1464
-0.25642699 -0.167694 20.178801
-0.232458 -0.168751 20.223301
-0.208681 -0.170072 20.274099
-0.184167 -0.17089 20.3666
-0.158172 -0.170614 20.4508
0.10031 -0.196514 22.660601
0.16489799 -0.189115 22.622101
0.211531 -0.19744501 22.5898
0.238436 -0.198956 22.6038
0.272762 -0.19269501 22.552601
0.28200001 -0.207453 22.447001
1.86912 -0.22871 25.156099
1.90172 -0.22836401 25.162701
1.9310499 -0.230975 25.1691
1.95985 -0.23165999 25.1451
1.70698 -0.19577301 20.1077
1.73368 -0.192515 20.0847
1.75051 -0.198751 20.068899
1.77447 -0.196661 20.032499
1.79739 -0.196968 20.013
1.81972 -0.197273 19.9881
1.84145 -0.197558 19.9578
1.8601 -0.20140301 19.936199
1.88527 -0.198149 19.902901
1.9058 -0.19961999 19.8757
1.9277 -0.19871999 19.8374
1.94671 -0.20256101 19.8214
1.97004 -0.200491 19.785999
1.99307 -0.200817 19.772301
2.01635 -0.20139299 19.763399
2.0394199 -0.20028999 19.736799
2.0616901 -0.201566 19.7264
2.0848801 -0.202145 19.717501
2.1073899 -0.20367201 19.712
2.1299 -0.205202 19.7064
2.15377 -0.205809 19.7038
2.17927 -0.20598 19.7108
2.2047801 -0.206155 19.717699
2.2286401 -0.206772 19.715099
2.2546501 -0.20635 19.720501
2.2811 -0.206218 19.731899
2.30637 -0.20688599 19.740601
2.33285 -0.206947 19.7533
2.3594 -0.207817 19.773001
2.38469 -0.209117 19.786501
2.4119699 -0.208754 19.8009
2.43944 -0.209668 19.826799
2.4688699 -0.209831 19.8606
2.49541 -0.210728 19.878599
2.52368 -0.211247 19.905701
2.5513501 -0.211651 19.9272
2.57973 -0.212456 19.956301
2.605 -0.213664 19.9662
2.6326599 -0.21482299 19.992201
2.6639099 -0.214881 20.034201
2.6977 -0.214893 20.0926
2.7243199 -0.21616501 20.1105
2.7579999 -0.21765999 20.177401
-1.22552 -0.133423 20.095501
-1.20146 -0.134204 20.097601
-1.17636 -0.134967 20.079599
-1.14739 -0.13309699 20.045601
-1.12169 -0.133048 20.0331
-1.09427 -0.131891 20.011299
-1.06866 -0.131844 19.998899
-1.04307 -0.131804 19.986401
-1.01534 -0.13045999 19.9594
-0.99010199 -0.130659 19.946501
-0.967632 -0.13291299 19.941099
-0.93883997 -0.13067099 19.9102
-0.91345602 -0.130643 19.8978
-0.88975298 -0.131723 19.8946
-0.86605698 -0.132809 19.891399
-0.839818 -0.132021 19.878599
-0.81385797 -0.131669 19.8575
-0.78862602 -0.13165601 19.8451
-0.76501 -0.132753 19.8419
-0.74140298 -0.133855 19.8386
-0.71648598 -0.133784 19.8375
-0.691459 -0.133753 19.830799
-0.66788101 -0.134866 19.827499
-0.64357603 -0.135259 19.828899
-0.620525 -0.13664 19.8347
-0.59365201 -0.134543 19.852501
-0.571199 -0.136593 19.8517
-0.54552197 -0.135833 19.8542
-0.52046901 -0.135506 19.8636
-0.496566 -0.136077 19.880301
-0.47518301 -0.138698 19.9081
-0.449994 -0.138244 19.925699
-0.424236 -0.137256 19.9505
-0.40264601 -0.13978501 19.987301
-0.37736401 -0.139173 20.0287
-0.35376501 -0.140191 20.0592
-0.32913801 -0.14051899 20.0723
-0.306362 -0.142259 20.120399
-0.280498 -0.141599 20.1373
-0.25632599 -0.14228299 20.1933
-0.233308 -0.144095 20.2467
-0.208747 -0.14470001 20.294901
-0.186151 -0.14707901 20.396601
1.86944 -0.197235 25.1626
1.90307 -0.19640499 25.1751
1.93154 -0.19844501 25.164
1.96416 -0.198035 25.1696
1.73463 -0.168368 20.108101
1.75095 -0.174628 20.0867
1.77337 -0.17376199 20.047701
1.79733 -0.172906 20.0252
1.81866 -0.174419 20.003201
1.84297 -0.172383 19.9725
1.8611799 -0.17744499 19.9592
1.88369 -0.175396 19.912399
1.90637 -0.17572901 19.893101
1.93141 -0.172527 19.8599
1.94986 -0.176386 19.838499
1.97163 -0.17552701 19.800501
1.99312 -0.17704201 19.784201
2.01457 -0.17855699 19.7679
2.0385201 -0.177729 19.7514
2.0624299 -0.17690399 19.735001
2.0843699 -0.17842799 19.7241
2.10689 -0.17996299 19.7185
2.1315999 -0.180345 19.7208
2.15681 -0.180262 19.7229
2.18258 -0.179952 19.727699
2.20348 -0.182666 19.7195
2.22754 -0.18305101 19.7164
2.2542 -0.182633 19.7272
2.2806599 -0.182487 19.738501
2.3059299 -0.182191 19.739
2.33149 -0.18238001 19.7458
2.3567901 -0.183204 19.755899
2.38308 -0.184847 19.7801
2.4093499 -0.1857 19.797199
2.4377 -0.18454599 19.813
2.46629 -0.185568 19.848101
2.49528 -0.18619201 19.8822
2.5232999 -0.185141 19.895201
2.5492499 -0.187659 19.921301
2.5776899 -0.187948 19.947201
2.60499 -0.18725599 19.957001
2.6300499 -0.19054399 19.9814
2.66324 -0.188977 20.025101
2.69561 -0.190221 20.0835
2.7225399 -0.19050799 20.0966
2.7608399 -0.19083899 20.186899
-1.22682 -0.108931 20.106199
-1.20172 -0.109326 20.097401
-1.17291 -0.107835 20.059999
-1.1474299 -0.108035 20.0471
-1.12124 -0.107808 20.0292
-1.0951 -0.10758 20.0114
-1.06707 -0.105846 19.990801
-1.04044 -0.105332 19.967899
-1.01518 -0.105543 19.955099
-0.99269098 -0.107801 19.949699
-0.96625698 -0.107159 19.931999
-0.93944103 -0.106234 19.9119
-0.91471899 -0.106659 19.903299
-0.891011 -0.107745 19.900101
-0.86474401 -0.106969 19.8873
-0.84050602 -0.108008 19.8703
-0.81445402 -0.107297 19.859301
-0.78985798 -0.107737 19.850599
-0.76623702 -0.108839 19.8473
-0.74262398 -0.109947 19.844
-0.71520001 -0.107939 19.8356
-0.691122 -0.108756 19.8272
-0.66755003 -0.109874 19.8239
-0.64367998 -0.11063 19.825199
-0.61934203 -0.110844 19.833599
-0.59474498 -0.110666 19.8515
-0.57134199 -0.11172 19.860201
-0.54670697 -0.11191 19.859699
-0.52131599 -0.111207 19.873899
-0.496979 -0.111393 19.890699
-0.47507301 -0.113495 19.9217
-0.449992 -0.113118 19.939699
-0.42510101 -0.112813 19.968201
-0.403137 -0.115038 20.000799
-0.37776101 -0.114367 20.0366
-0.35384801 -0.115075 20.0681
-0.32944 -0.115451 20.096901
-0.30643299 -0.117071 20.1294
-0.28097501 -0.116739 20.1474
-0.25708899 -0.117607 20.2041
-0.23276301 -0.118198 20.2658
-0.208883 -0.119286 20.335699
-0.184701 -0.120199 20.441401
1.8687 -0.167192 25.1754
1.9023401 -0.16634201 25.188101
1.9316601 -0.16724899 25.171801
1.96137 -0.16853701 25.1653
1.99749 -0.16674399 25.1938
1.7335 -0.145365 20.1234
1.7555 -0.14572699 20.092699
1.77297 -0.150442 20.0655
1.79673 -0.14882401 20.032
1.82064 -0.148001 20.0096
1.84395 -0.14717899 19.9818
1.86619 -0.14754701 19.9569
1.88781 -0.147907 19.926701
1.90694 -0.15180101 19.910601
1.9304301 -0.14981 19.8748
1.95401 -0.14899699 19.852699
1.97682 -0.148581 19.8281
1.99375 -0.15324301 19.8015
2.0146301 -0.15478 19.7798
2.0383699 -0.152798 19.749901
2.06095 -0.15433601 19.744301
2.0838599 -0.15470099 19.7307
2.10778 -0.15530901 19.728201
2.1310999 -0.15662301 19.727301
2.1556399 -0.15666901 19.725
2.1805201 -0.157392 19.7318
2.2060399 -0.15577 19.722401
2.2283399 -0.158402 19.725
2.2532201 -0.158094 19.722401
2.28022 -0.157803 19.7369
2.3057699 -0.157821 19.742399
2.3310599 -0.158629 19.752501
2.3566401 -0.158813 19.7593
2.38519 -0.158557 19.7852
2.411 -0.159345 19.798401
2.4372201 -0.16037799 19.816401
2.46368 -0.16122399 19.8344
2.49245 -0.16131 19.8629
2.5225899 -0.16095801 19.8976
2.54933 -0.162282 19.9202
2.5764999 -0.162872 19.9396
2.60465 -0.163261 19.9641
2.6328599 -0.163661 19.9886
2.66243 -0.164298 20.024099
2.69186 -0.16603699 20.066401
2.7204101 -0.16616599 20.089701
2.7509 -0.16858301 20.143
2.78864 -0.16741 20.2181
-1.22821 -0.0849813 20.106501
-1.20099 -0.084363602 20.081301
-1.17423 -0.0836583 20.0655
-1.14825 -0.083687901 20.0471
-1.12078 -0.0825793 20.025299
-1.09514 -0.0825589 20.012899
-1.06603 -0.080376796 19.9818
-1.04048 -0.080362603 19.9694
-1.0164599 -0.081488699 19.960501
-0.99056602 -0.081590801 19.936501
-0.96444303 -0.081148699 19.9205
-0.93970102 -0.081580497 19.9118
-0.91597903 -0.082667202 19.908701
-0.89226502 -0.083758697 19.9055
-0.863648 -0.081597097 19.8748
-0.839338 -0.082258902 19.867901
-0.81472099 -0.082706504 19.8592
-0.79108697 -0.083809897 19.856001
-0.76745999 -0.084918 19.852699
-0.74252701 -0.084845804 19.8517
-0.71435201 -0.082652397 19.8269
-0.69077897 -0.083769202 19.823601
-0.66721398 -0.084890597 19.820299
-0.64243603 -0.084786303 19.8249
-0.61944699 -0.085642599 19.8556
-0.59586 -0.0867806 19.8521
-0.57252699 -0.087788902 19.8657
-0.546749 -0.086848401 19.873501
-0.52134901 -0.086127698 19.887699
-0.496755 -0.086283498 19.8929
-0.47593701 -0.089095697 19.935699
-0.45009899 -0.088135302 19.948299
-0.426826 -0.088925198 19.996099
-0.40323201 -0.089983597 20.0096
-0.37960899 -0.091049299 20.023001
-0.35501099 -0.090907097 20.0739
-0.331296 -0.091964401 20.090799
-0.306353 -0.091691598 20.143801
-0.282134 -0.092417598 20.162001
-0.25824499 -0.093282998 20.2101
-0.233825 -0.093700103 20.2757
-0.20993599 -0.0945687 20.3771
0.63263202 -0.118405 22.6705
1.86693 -0.13754299 25.1814
1.9009399 -0.136271 25.192801
1.93065 -0.13690799 25.1772
1.96067 -0.13810401 25.173201
1.99389 -0.137512 25.183701
2.0264599 -0.137299 25.191099
1.72795 -0.125341 20.1266
1.75595 -0.12154 20.1105
1.79667 -0.124723 20.044201
1.82005 -0.123932 20.0163
1.84447 -0.123124 19.999399
1.86516 -0.124701 19.971901
1.88922 -0.123132 19.944099
1.90751 -0.127836 19.928101
1.92945 -0.127067 19.8897
1.9524699 -0.126283 19.8622
1.97628 -0.124724 19.8347
1.99832 -0.124727 19.807501
2.0163901 -0.12941501 19.791599
2.04002 -0.12785301 19.764299
2.0618801 -0.129409 19.7523
2.0855401 -0.129786 19.745001
2.1080799 -0.131337 19.7395
2.13061 -0.132891 19.7339
2.1570201 -0.13170999 19.736
2.1816299 -0.13248 19.7409
2.20539 -0.131708 19.7244
2.2281699 -0.132108 19.710699
2.2567401 -0.132485 19.744699
2.28022 -0.133123 19.738899
2.3049099 -0.134461 19.7491
2.3306301 -0.134867 19.759199
2.35622 -0.135043 19.766001
2.38151 -0.134757 19.766399
2.4079299 -0.135277 19.7824
2.4370301 -0.136207 19.822001
2.4635501 -0.13674 19.8379
2.4920299 -0.13565201 19.855
2.5199399 -0.13810199 19.896299
2.5467 -0.137981 19.9076
2.5783899 -0.136932 19.947201
2.60431 -0.139254 19.9711
2.63165 -0.138542 19.9809
2.6600101 -0.140689 20.019899
2.6868501 -0.14154699 20.037701
2.71788 -0.14120799 20.0753
2.75088 -0.142252 20.1362
2.7830999 -0.14262 20.185699
-1.22715 -0.059077699 20.1049
-1.19952 -0.058409002 20.073999
-1.1740201 -0.058636799 20.061001
-1.1477799 -0.058449399 20.0432
-1.12032 -0.0573637 20.0214
-1.09517 -0.0575413 20.014299
-1.0668499 -0.056108199 19.9818
-1.0405101 -0.055396799 19.9708
-1.01508 -0.055689398 19.9533
-0.98945999 -0.056050099 19.929001
-0.96469599 -0.056489099 19.9203
-0.94096202 -0.0575765 19.9172
-0.917234 -0.058668599 19.914101
-0.89092201 -0.058077101 19.8964
-0.864236 -0.0572078 19.876499
-0.83959901 -0.0576628 19.8678
-0.81595099 -0.058766901 19.864599
-0.79182202 -0.059725899 19.852699
-0.76618701 -0.059298299 19.8438
-0.74021697 -0.058426902 19.8396
-0.71517497 -0.058568601 19.827
-0.691603 -0.0596902 19.823799
-0.66710401 -0.059807599 19.8288
-0.64189398 -0.059294701 19.8353
-0.61989599 -0.0612716 19.853201
-0.59477001 -0.0608234 19.861601
-0.571881 -0.0623005 19.870501
-0.54760098 -0.062523797 19.883699
-0.52252501 -0.0621619 19.893299
-0.49736199 -0.061629701 19.909599
-0.476816 -0.064827897 19.9412
-0.45019901 -0.063137703 19.957001
-0.426898 -0.063901201 20.0014
-0.40332201 -0.064913899 20.018299
-0.378894 -0.064878799 20.062401
-0.35495299 -0.0655801 20.0881
-0.33126801 -0.066503897 20.1189
-0.307127 -0.067055702 20.154499
-0.282276 -0.0670228 20.195801
-0.25774699 -0.067415103 20.2295
-0.233502 -0.067857102 20.304701
-0.21058901 -0.069382399 20.423599
1.86587 -0.107077 25.184799
1.90198 -0.103338 25.188601
1.93047 -0.105421 25.1775
1.96066 -0.105907 25.166
1.99465 -0.103798 25.1661
2.0264299 -0.104117 25.1716
2.05564 -0.105073 25.1553
1.75423 -0.096141301 20.091
1.77961 -0.095425501 20.0835
1.7997299 -0.098208301 20.061501
1.81969 -0.100615 20.034
1.84287 -0.100243 20.0089
1.8667001 -0.099472001 19.986601
1.89092 -0.097547799 19.955999
1.90951 -0.101503 19.934401
1.92919 -0.1039 19.9072
1.9530801 -0.102359 19.879601
1.97605 -0.101611 19.8521
1.99896 -0.100866 19.8248
2.0200601 -0.103601 19.8167
2.04129 -0.104034 19.7869
2.0668099 -0.102092 19.7729
2.0872099 -0.104838 19.759399
2.1097701 -0.106398 19.753901
2.1345201 -0.106772 19.7561
2.15818 -0.106019 19.7383
2.1819201 -0.106876 19.736601
2.20474 -0.10765 19.7264
2.2299399 -0.107207 19.7251
2.2546301 -0.108334 19.7339
2.28038 -0.108311 19.7409
2.30475 -0.109541 19.7477
2.3292699 -0.110334 19.7516
2.3557701 -0.110337 19.7644
2.3810899 -0.110975 19.7731
2.4077401 -0.111144 19.787901
2.4339299 -0.112137 19.806
2.4598 -0.112905 19.819201
2.4911201 -0.111771 19.8578
2.5185201 -0.112777 19.883801
2.5442801 -0.113605 19.895599
2.57845 -0.112046 19.950001
2.6035199 -0.113154 19.9582
2.6310999 -0.114252 19.984301
2.6580999 -0.115815 20.009399
2.68434 -0.117012 20.0257
2.71963 -0.115173 20.0823
2.75157 -0.116822 20.1411
2.78159 -0.117752 20.18
-1.22698 -0.034350902 20.094801
-1.20085 -0.034212101 20.0793
-1.17303 -0.033218302 20.0516
-1.1468101 -0.0330486 20.0338
-1.12035 -0.032338399 20.022699
-1.09246 -0.031114699 19.9956
-1.06687 -0.031127 19.9832
-1.04283 -0.032272998 19.9744
-1.0144399 -0.0305259 19.946501
-0.98970598 -0.0313849 19.928801
-0.965958 -0.0324727 19.925699
-0.94221801 -0.033565398 19.9226
-0.91458797 -0.031744801 19.9093
-0.88915002 -0.032143701 19.885
-0.86449099 -0.032605901 19.876301
-0.84083003 -0.0337107 19.8731
-0.817177 -0.034820199 19.8699
-0.78994501 -0.033386 19.851101
-0.763753 -0.032695498 19.8356
-0.73878199 -0.0326542 19.8318
-0.71520197 -0.033775602 19.8286
-0.69163001 -0.0349016 19.8253
-0.66702902 -0.0350702 19.825001
-0.642546 -0.034951899 19.8396
-0.61787403 -0.034860302 19.848
-0.59397799 -0.0355305 19.8529
-0.572644 -0.038078502 19.8724
-0.54844999 -0.038178701 19.893999
-0.52264398 -0.037221499 19.9018
-0.49765199 -0.036886901 19.914801
-0.47610301 -0.038876001 19.9632
-0.45018601 -0.0379356 19.971001
-0.42806199 -0.039804202 20.007
-0.403285 -0.0396397 20.0324
-0.37874901 -0.039789099 20.0539
-0.35574001 -0.040999699 20.0987
-0.32925901 -0.039698102 20.1112
-0.30788901 -0.0424468 20.1602
-0.281721 -0.041161001 20.207701
-0.25777999 -0.0417463 20.2736
-0.233613 -0.0419183 20.385599
1.8450201 -0.0717149 25.2735
1.86797 -0.073196001 25.1803
1.9018 -0.071838103 25.1889
1.93082 -0.072541103 25.165199
1.96187 -0.0731517 25.166
1.99648 -0.071958199 25.1859
2.02741 -0.071764603 25.1742
2.05707 -0.073088698 25.1677
1.7803 -0.070073999 20.090099
1.8028001 -0.0716528 20.078899
1.84229 -0.076171398 20.0156
1.86613 -0.075425401 19.993299
1.88991 -0.074683301 19.971001
1.91265 -0.075113103 19.951599
1.93661 -0.073614903 19.923901
1.95368 -0.078397997 19.896999
1.9758199 -0.078469798 19.8696
1.9996001 -0.076968297 19.8421
2.0220799 -0.077404402 19.822901
2.04477 -0.077077799 19.798401
2.0662999 -0.078294702 19.7794
2.0888901 -0.079859398 19.7738
2.11255 -0.080261201 19.7665
2.1364 -0.079977199 19.7544
2.15977 -0.079933003 19.740601
2.1819699 -0.081286699 19.730301
2.20509 -0.081934199 19.721399
2.22978 -0.082319804 19.7236
2.2553999 -0.082360603 19.7304
2.2808101 -0.082836002 19.739201
2.30529 -0.0834672 19.7416
2.3315799 -0.083835199 19.756201
2.35637 -0.084568001 19.761801
2.38095 -0.086565703 19.7766
2.4072499 -0.087006398 19.791201
2.4356 -0.085772201 19.807199
2.46193 -0.086555101 19.824301
2.4884 -0.088111401 19.8486
2.5171001 -0.087481901 19.8713
2.5457001 -0.087583497 19.8988
2.57371 -0.0887293 19.9298
2.6028299 -0.087495901 19.949301
2.6293499 -0.089716502 19.9769
2.65836 -0.0897374 20.004801
2.6874399 -0.089768499 20.0326
2.71753 -0.090571903 20.0732
2.74772 -0.091388598 20.1138
2.78069 -0.092073098 20.1721
2.8087001 -0.095074102 20.2125
-1.22615 -0.0089376904 20.0877
-1.20048 -0.0089165699 20.078199
-1.1725399 -0.0079900296 20.047501
-1.14683 -0.0080079399 20.035101
-1.11938 -0.0069815498 20.0133
-1.0932699 -0.0068393699 19.9956
-1.0669 -0.0061500398 19.9846
-1.04143 -0.00648202 19.9671
-1.01473 -0.0062678801 19.937201
-0.990969 -0.0073561501 19.934099
-0.96721601 -0.0084492499 19.931
-0.94083601 -0.0078939404 19.913401
-0.91474098 -0.0074873702 19.8971
-0.88939703 -0.0075360402 19.8848
-0.86572403 -0.0086414004 19.881599
-0.842058 -0.0097515099 19.8785
-0.813564 -0.0077034002 19.847799
-0.78995001 -0.0088178599 19.8447
-0.76475698 -0.0088815102 19.832399
-0.73985702 -0.0088117002 19.8314
-0.71640098 -0.0098697999 19.8339
-0.69282299 -0.0110012 19.830601
-0.66821802 -0.0111706 19.830299
-0.64324999 -0.010761 19.84
-0.61826599 -0.0103547 19.849701
-0.59515601 -0.0115994 19.858299
-0.57275099 -0.0134318 19.8687
-0.54926401 -0.0140094 19.8944
-0.52275699 -0.0122662 19.910299
-0.498142 -0.0121094 19.9298
-0.476138 -0.0139262 19.964899
-0.45100001 -0.0134812 19.9813
-0.42758 -0.0142959 20.0121
-0.404084 -0.0151153 20.0429
-0.378883 -0.0145382 20.073099
-0.356525 -0.016399899 20.109301
-0.33046201 -0.0152838 20.134399
-0.307816 -0.0169378 20.179501
-0.282884 -0.0166378 20.231001
-0.25892499 -0.017147601 20.2971
-0.236449 -0.018992901 20.374599
1.8437099 -0.039755698 25.253
1.8689801 -0.041192099 25.188499
1.90367 -0.040208802 25.2136
1.93011 -0.0424526 25.177999
1.96363 -0.041182701 25.183599
1.99639 -0.039391901 25.1724
2.0269001 -0.0400404 25.167101
2.05511 -0.041788701 25.148899
2.0880899 -0.041341301 25.158701
1.80221 -0.047492601 20.0856
1.82461 -0.047981299 20.060499
1.8464 -0.048487902 20.030001
1.8651 -0.052511301 20.0082
1.8893501 -0.0506512 19.9776
1.9120899 -0.051103801 19.9582
1.93677 -0.0492278 19.9331
1.9582601 -0.049737599 19.903
1.97416 -0.056105498 19.881701
1.99809 -0.054253198 19.8514
2.0205801 -0.054708 19.8323
2.04497 -0.0528422 19.807501
2.06797 -0.053275298 19.7938
2.0899701 -0.054873101 19.7829
2.1120601 -0.056470301 19.773001
2.13676 -0.054592799 19.752701
2.1592901 -0.056171 19.7472
2.18276 -0.056590699 19.7388
2.2046199 -0.058196299 19.7279
2.2293301 -0.0585793 19.730101
2.2571101 -0.0575075 19.745001
2.2809801 -0.058151402 19.7425
2.3048501 -0.058799699 19.739901
2.3306201 -0.0592633 19.7514
2.3557799 -0.060009599 19.760201
2.38029 -0.061690599 19.7717
2.40731 -0.0622379 19.7932
2.43297 -0.062755801 19.803301
2.4602399 -0.062224701 19.816799
2.48738 -0.062910303 19.8393
2.5141301 -0.064438701 19.8654
2.54476 -0.0624424 19.8913
2.5724599 -0.063648701 19.9209
2.5998299 -0.064360499 19.943399
2.62975 -0.063205801 19.9694
2.6573801 -0.064915903 20.000999
2.6856599 -0.065184802 20.025299
2.7137599 -0.066498302 20.055901
2.7457299 -0.065677904 20.097099
2.7720399 -0.067302503 20.1164
2.81271 -0.066342101 20.216101
-1.24997 0.019091699 20.124201
-1.22747 0.0152784 20.0931
-1.2014 0.0151666 20.074699
-1.1733299 0.0163402 20.047501
-1.14685 0.017028401 20.0364
-1.1188999 0.018191701 20.0093
-1.09328 0.018152799 19.996901
-1.06769 0.0181069 19.984501
-1.0407701 0.0186728 19.960199
-1.01599 0.017773001 19.942499
-0.99222797 0.016679499 19.9394
-0.96678197 0.0166259 19.927099
-0.93968803 0.017606899 19.9055
-0.915317 0.016921099 19.898701
-0.89063197 0.016440701 19.8901
-0.86695302 0.0153301 19.8869
-0.844432 0.0129404 19.8757
-0.81413502 0.0166463 19.849501
-0.79052103 0.0155273 19.8463
-0.76596099 0.0150312 19.837601
-0.74118698 0.0151751 19.8424
-0.71759599 0.0140431 19.839199
-0.69401199 0.0129063 19.835899
-0.66922599 0.0130337 19.840599
-0.64443201 0.0131573 19.845301
-0.61944503 0.0135752 19.855
-0.59491402 0.013465 19.860399
-0.57299799 0.0118675 19.896099
-0.54861099 0.0119325 19.916201
-0.52392298 0.0117316 19.9158
-0.50052601 0.0108095 19.9328
-0.47837201 0.0091702798 19.968599
-0.45181099 0.0109921 19.991699
-0.428868 0.0100333 20.034901
-0.404881 0.0094282804 20.053301
-0.35646501 0.0090091703 20.123501
-0.33177099 0.00959838 20.1924
-0.307877 0.0083552701 20.188499
-0.28404799 0.0079349196 20.2544
-0.26005101 0.0081228102 20.3736
1.8444901 -0.00591985 25.2321
1.86974 -0.0098158699 25.2027
1.90295 -0.0100529 25.2264
1.932 -0.0108204 25.2027
1.96517 -0.0086298399 25.1905
1.99673 -0.0073506902 25.171301
2.02672 -0.0085741598 25.167299
2.0555799 -0.0093480796 25.1437
2.0881801 -0.0089144204 25.149401
1.77786 -0.025325401 20.1339
1.80215 -0.0232851 20.097799
1.82613 -0.0225932 20.0753
1.84951 -0.0219396 20.0473
1.8662 -0.028330401 20.0313
1.88834 -0.027741499 19.9925
1.9121 -0.0270497 19.970301
1.9358 -0.026363799 19.948
1.95945 -0.0256806 19.9258
1.9779299 -0.029719099 19.9042
1.99971 -0.029130301 19.8659
2.02124 -0.030774301 19.8496
2.04408 -0.0301254 19.822201
2.0680699 -0.029416 19.8057
2.09007 -0.031028099 19.7948
2.1120601 -0.0326428 19.7838
2.1359301 -0.031939998 19.7673
2.1588099 -0.032398999 19.753599
2.18102 -0.033779401 19.7432
2.20555 -0.033493798 19.737499
2.2288699 -0.034828801 19.736601
2.25666 -0.033737902 19.751499
2.28054 -0.0343851 19.749001
2.30442 -0.035036799 19.746401
2.3299899 -0.035174798 19.753401
2.35572 -0.0355349 19.7635
2.37918 -0.037114199 19.765699
2.40803 -0.037368201 19.799801
2.43257 -0.038921699 19.8099
2.4596701 -0.0381286 19.819901
2.48806 -0.037295301 19.8395
2.51653 -0.038734499 19.8785
2.54177 -0.039385799 19.8853
2.5684199 -0.039866701 19.901199
2.59795 -0.0406553 19.941099
2.62763 -0.039230701 19.9634
2.6551499 -0.0401452 19.9881
2.6851299 -0.040842298 20.0287
2.7125599 -0.040094201 20.0385
2.74018 -0.043375202 20.0811
2.77282 -0.0424156 20.125799
2.80527 -0.042215198 20.1742
-1.2991 0.048645299 20.187401
-1.24761 0.045420099 20.1105
-1.22709 0.040578902 20.091801
-1.2002701 0.040658999 20.065399
-1.17206 0.042268399 20.044701
-1.1458499 0.042370301 20.027
-1.1197 0.042473201 20.009199
-1.0933 0.043140698 19.998199
-1.06722 0.0432337 19.980499
-1.04135 0.043043301 19.959499
-1.0172499 0.041820802 19.947701
-0.99080598 0.042339899 19.930099
-0.96397299 0.043125302 19.910101
-0.93925202 0.042641699 19.901501
-0.91555297 0.0415355 19.898399
-0.89186198 0.040424399 19.8953
-0.86560303 0.040929601 19.8778
-0.84124899 0.040254202 19.870701
-0.81437802 0.041202199 19.8493
-0.790766 0.040078901 19.8461
-0.76585001 0.0401504 19.8452
-0.742383 0.039100401 19.8477
-0.71878701 0.037962899 19.8445
-0.694166 0.0377963 19.8442
-0.67040801 0.036953598 19.846001
-0.64421099 0.038668498 19.863701
-0.61957997 0.038489301 19.8634
-0.59714597 0.0364458 19.863899
-0.57291698 0.036634699 19.8908
-0.54961002 0.0357676 19.909401
-0.52508497 0.035736602 19.9212
-0.49924499 0.037150402 19.947701
-0.47676301 0.035531301 19.9702
-0.452968 0.0350844 19.9972
-0.42947701 0.034641601 20.0404
-0.404843 0.034783699 20.0674
-0.382002 0.033415001 20.1001
-0.35545099 0.0352295 20.135401
-0.33463299 0.031860799 20.162001
-0.307713 0.034276702 20.225901
-0.28578299 0.032403398 20.3027
-0.26120299 0.032885201 20.3974
1.84374 0.024271499 25.244801
1.87546 0.025017601 25.233101
1.9085 0.025898499 25.2377
1.93161 0.020138601 25.2078
1.96403 0.02221 25.1873
1.99731 0.023920299 25.1838
2.0265501 0.0228882 25.167601
2.05494 0.0207373 25.1565
2.0875199 0.0215498 25.1569
2.12063 0.0213551 25.177099
1.80338 0.0039363299 20.0875
1.82555 0.00156688 20.082001
1.84893 0.0021913899 20.054001
1.87078 0.00052603299 20.037399
1.89292 0.00105964 19.9986
1.91211 -0.00297351 19.9823
1.93483 -0.0034765201 19.9629
1.9594899 -0.00165287 19.937799
1.98211 -0.0021593601 19.918501
2.0244601 -0.0044466099 19.8666
2.04391 -0.0069749001 19.8395
2.0665901 -0.0067308499 19.815001
2.08957 -0.0071978299 19.801201
2.11253 -0.0076703099 19.7875
2.1354499 -0.00814413 19.7738
2.15802 -0.0084139602 19.755301
2.1818199 -0.0090562403 19.751801
2.20591 -0.0094654597 19.748699
2.2306399 -0.0098429397 19.750999
2.2562101 -0.0099582402 19.757999
2.2801001 -0.0106087 19.755501
2.3039801 -0.0112637 19.753
2.32956 -0.0113934 19.759899
2.35515 -0.0115264 19.766899
2.3784101 -0.0131134 19.7675
2.40642 -0.0128496 19.7904
2.4328699 -0.0131303 19.805
2.4591 -0.0140305 19.823
2.4864099 -0.0134696 19.836599
2.5133801 -0.0145851 19.8615
2.54142 -0.0141025 19.880699
2.5681701 -0.0152654 19.9034
2.5973799 -0.015633799 19.937799
2.6242299 -0.016232301 19.955601
2.6533899 -0.015641199 19.9807
2.6830399 -0.016354499 20.0194
2.71087 -0.016031301 20.035801
2.7397001 -0.017159 20.070499
2.77192 -0.016842799 20.117901
2.80194 -0.017592 20.156799
2.83289 -0.0171957 20.1929
-1.24893 0.069671802 20.115801
-1.22765 0.065095298 20.091
-1.19858 0.066648401 20.056999
-1.17284 0.066585101 20.0446
-1.14536 0.067541197 20.0228
-1.1197 0.067475997 20.0105
-1.09408 0.0674036 19.9981
-1.06642 0.068208098 19.967699
-1.04099 0.068181001 19.9583
-1.01851 0.065875299 19.952999
-0.98962098 0.067832597 19.9221
-0.96420002 0.067749098 19.9098
-0.94048899 0.066642597 19.906799
-0.91678399 0.065531202 19.9037
-0.89308703 0.064414904 19.9006
-0.86448097 0.066361502 19.8699
-0.83920997 0.066262901 19.857599
-0.81558502 0.065139197 19.8545
-0.790658 0.065213703 19.8536
-0.76704699 0.064081103 19.8505
-0.74344403 0.0629436 19.8473
-0.71984798 0.0618014 19.844
-0.69534802 0.061722402 19.849501
-0.670376 0.062171899 19.859301
-0.64538699 0.062618099 19.868999
-0.62075198 0.062438101 19.8687
-0.59611601 0.062252302 19.868401
-0.57162303 0.062498301 19.888
-0.54945302 0.060986601 19.917999
-0.52509999 0.060946699 19.934999
-0.499632 0.061766699 19.9494
-0.476464 0.061286502 19.994101
-0.45295 0.060385801 20.0112
-0.42857301 0.0609244 20.0625
-0.40492201 0.059955899 20.076099
-0.36789101 0.070011102 20.083799
-0.35589999 0.0602361 20.149
-0.332984 0.059250399 20.2071
-0.31027901 0.057748899 20.2526
-0.28297299 0.060952201 20.3531
-0.262355 0.057699401 20.421101
1.84399 0.0556104 25.254
1.8774199 0.056605801 25.2619
1.9077801 0.056107499 25.2505
1.93739 0.056607999 25.214199
1.96639 0.055782799 25.1905
1.99746 0.055174801 25.191401
2.0258901 0.053012099 25.1803
2.05477 0.052175701 25.1567
2.0847199 0.050935 25.1527
2.1207299 0.0536214 25.169901
2.1508701 0.051611401 25.1782
1.84946 0.026430899 20.0716
1.87133 0.024741801 20.055
1.89663 0.0276487 20.021299
1.91526 0.0235445 19.9995
1.93385 0.0194373 19.9778
1.95795 0.021189 19.947201
1.98059 0.020663699 19.9279
2.0055499 0.0235606 19.894699
2.0239401 0.019471699 19.8731
2.06705 0.0182829 19.8186
2.08968 0.016685201 19.813101
2.11203 0.016153701 19.794001
2.1352999 0.016777201 19.7721
2.15958 0.0172526 19.7616
2.18293 0.015920701 19.760799
2.20768 0.0155495 19.7631
2.23242 0.0151744 19.7654
2.25576 0.0138315 19.7645
2.27966 0.0131777 19.761999
2.30355 0.0125194 19.759501
2.3291399 0.0123982 19.7665
2.3547299 0.0122736 19.773399
2.3786099 0.0116047 19.7708
2.4056499 0.0124331 19.780899
2.4324701 0.0121376 19.799
2.4593401 0.0118383 19.817101
2.4860301 0.0104115 19.8433
2.51319 0.0112202 19.8533
2.54017 0.0109 19.871401
2.5666299 0.0085627502 19.9021
2.59554 0.0100852 19.9188
2.6222601 0.0096317399 19.934799
2.65172 0.0085939802 19.975901
2.67874 0.0084581301 19.9907
2.71067 0.00898821 20.036301
2.73943 0.0089125298 20.0625
2.7673399 0.0079956204 20.088699
2.7988999 0.0076070102 20.1367
2.8364201 0.00928488 20.210199
-1.2811199 0.092444599 20.1793
-1.25025 0.093930297 20.121099
-1.2262501 0.090566203 20.077801
-1.19858 0.091702297 20.058201
-1.17233 0.091764897 20.0404
-1.14614 0.0918286 20.022699
-1.1197 0.0924742 20.0117
-1.09359 0.092528097 19.993999
-1.0660501 0.093349896 19.966499
-1.04355 0.091040596 19.961201
-1.01706 0.091521502 19.9436
-0.99018401 0.092263401 19.923599
-0.965437 0.091761902 19.915001
-0.94172102 0.090650201 19.912001
-0.91539502 0.091119401 19.8944
-0.89171201 0.090000696 19.8913
-0.86405599 0.091335997 19.8659
-0.84041798 0.090212002 19.862801
-0.81678802 0.089083001 19.859699
-0.79185599 0.089156501 19.8589
-0.76678801 0.089126997 19.852301
-0.743186 0.087985501 19.8491
-0.71997899 0.086693101 19.851101
-0.695427 0.0865824 19.8543
-0.67106402 0.086367503 19.859501
-0.64656001 0.086574599 19.8743
-0.62191999 0.0863939 19.874001
-0.59727901 0.0862073 19.873699
-0.57158798 0.087702997 19.9002
-0.549124 0.086022198 19.914301
-0.52582002 0.0852511 19.9366
-0.50078601 0.085815199 19.954901
-0.478062 0.084588997 19.983
-0.454101 0.084504403 20.016701
-0.43035001 0.084118202 20.048599
-0.40412599 0.0861848 20.0984
-0.38267899 0.084007204 20.147499
-0.35686299 0.084871002 20.164801
-0.33252501 0.085232802 20.226299
-0.30874601 0.085060999 20.2927
-0.28481901 0.0848765 20.359301
1.84416 0.086208701 25.274
1.8757401 0.088772804 25.231001
1.9100699 0.089557499 25.2554
1.93826 0.088238798 25.2265
1.96762 0.087424703 25.207001
1.99762 0.086437501 25.1989
2.0263801 0.085447699 25.174999
2.05442 0.083951898 25.149799
2.08461 0.084145598 25.128901
2.1208701 0.085360698 25.17
2.1514299 0.083769999 25.177999
2.1794801 0.083736002 25.135
1.82508 0.047875602 20.1287
1.84786 0.049431801 20.0811
1.87132 0.048940301 20.067101
1.89562 0.050653301 20.036301
1.91728 0.049995501 20.0058
1.9406 0.049490102 19.991899
1.96214 0.048835602 19.961599
1.98122 0.0447606 19.945299
2.0046201 0.046416 19.9095
2.0271699 0.045864701 19.8902
2.0490699 0.0452535 19.865601
2.0703101 0.0446034 19.8356
2.08918 0.040541399 19.8195
2.11374 0.041239399 19.808399
2.1373601 0.0429384 19.7784
2.15992 0.041329399 19.7728
2.1824601 0.039717101 19.7672
2.2072201 0.039348599 19.7696
2.2319701 0.038976301 19.7719
2.2553101 0.037631199 19.771
2.2792201 0.036974199 19.768499
2.3031199 0.036312599 19.766001
2.3287101 0.036199801 19.773001
2.35432 0.036083698 19.780001
2.3782001 0.035411499 19.777399
2.4052501 0.036253098 19.7875
2.43171 0.036174498 19.8008
2.46015 0.036970999 19.822201
2.48632 0.0362265 19.8384
2.51263 0.035357598 19.8564
2.5394199 0.035023302 19.873301
2.5668399 0.034520298 19.8962
2.59374 0.033095501 19.9224
2.6212299 0.033662599 19.936001
2.6486499 0.033043999 19.9585
2.6747899 0.0323219 19.9718
2.70753 0.034046199 20.0144
2.7373199 0.033411998 20.0532
2.7652199 0.033764798 20.0697
2.79373 0.0319927 20.106899
2.8281801 0.0330039 20.1646
2.8563299 0.034243401 20.1745
-1.31666 0.114479 20.2726
-1.27987 0.117498 20.1602
-1.25359 0.115527 20.1099
-1.2251101 0.116114 20.0704
-1.19753 0.117022 20.0485
-1.1713099 0.117067 20.0308
-1.14485 0.117704 20.0198
-1.11871 0.117739 20.0021
-1.0913399 0.118639 19.980499
-1.0673 0.117432 19.971701
-1.04134 0.117105 19.947701
-1.01517 0.117402 19.931801
-0.99149901 0.115576 19.9151
-0.96666998 0.115781 19.9202
-0.942949 0.114664 19.917101
-0.91423702 0.116543 19.8864
-0.889907 0.115821 19.8797
-0.86526501 0.115297 19.871099
-0.84162199 0.114168 19.868
-0.81798702 0.113033 19.864901
-0.79304999 0.113106 19.8641
-0.767977 0.113069 19.8575
-0.74436897 0.111922 19.8543
-0.72076899 0.11077 19.851101
-0.695979 0.110926 19.8559
-0.67169499 0.110742 19.863701
-0.646694 0.111529 19.882601
-0.623083 0.110357 19.879299
-0.59732401 0.111386 19.8873
-0.57228798 0.112086 19.905399
-0.55027801 0.110033 19.9196
-0.52623898 0.110312 19.955999
-0.50088102 0.110865 19.963301
-0.477568 0.110251 19.994301
-0.45418501 0.109628 20.025299
-0.43087301 0.10929 20.073601
-0.40618601 0.109469 20.0973
-0.38274601 0.109286 20.1563
-0.360048 0.107326 20.1668
-0.32971799 0.112502 20.2094
-0.31260899 0.106841 20.281799
-0.28873 0.10702 20.366199
1.84913 0.120958 25.2981
1.8697799 0.11519 25.228399
1.9105901 0.12208 25.249901
1.93843 0.119804 25.2307
1.96815 0.11901 25.2152
1.99763 0.119422 25.179001
2.0260401 0.117235 25.167999
2.0548999 0.116348 25.144501
2.08494 0.115359 25.1381
2.1205699 0.117046 25.1653
2.1506 0.116048 25.1588
2.18431 0.116984 25.1714
1.80468 0.074090898 20.1744
1.82421 0.072909698 20.121901
1.8545901 0.079650097 20.095301
1.87131 0.073160999 20.079201
1.8950599 0.074779801 20.0429
1.91787 0.074206702 20.023399
1.93705 0.0700996 20.007
1.9615999 0.0728743 19.9681
1.98069 0.068775699 19.951799
2.0062699 0.071664803 19.924
2.0272501 0.069876596 19.9021
2.05039 0.071118198 19.8692
2.07357 0.070963897 19.852699
2.0924599 0.066878997 19.8365
2.1130099 0.064363599 19.8202
2.48316 0.058056701 19.8405
2.51282 0.059377301 19.8666
2.5396399 0.059870299 19.876699
2.5667701 0.060141701 19.8908
2.59266 0.0570333 19.9238
2.6206901 0.0578973 19.939199
2.648 0.0587079 19.9492
2.677 0.058882698 19.9771
2.70362 0.056837302 20.004801
2.73294 0.058192201 20.024401
2.76037 0.0565386 20.054001
2.7941201 0.058561798 20.1
2.82498 0.057233799 20.1507
2.8519399 0.0567974 20.1653
-1.27746 0.14379101 20.146299
-1.25064 0.141523 20.084299
-1.22339 0.142059 20.0618
-1.19649 0.142318 20.0389
-1.17001 0.14294399 20.027901
-1.1438299 0.14296199 20.010201
-1.1177 0.14297999 19.9925
-1.09237 0.14262401 19.979799
-1.06601 0.142719 19.958599
-1.04179 0.14138199 19.944
-1.01537 0.14203601 19.931299
-0.991633 0.14092401 19.928301
-0.96524101 0.141357 19.910801
-0.94081497 0.140662 19.903799
-0.91478801 0.14092501 19.887899
-0.89012498 0.140394 19.879299
-0.86646998 0.139264 19.8762
-0.84282202 0.13812999 19.8731
-0.81867498 0.13705701 19.8613
-0.79173398 0.13869201 19.856899
-0.76705801 0.138246 19.848499
-0.74346298 0.137097 19.845301
-0.71751398 0.13792901 19.8412
-0.69599402 0.135426 19.8493
-0.668688 0.138244 19.8682
-0.64775097 0.13539299 19.882099
-0.62241203 0.135875 19.8839
-0.59816903 0.13579001 19.8974
-0.57311702 0.13625599 19.907101
-0.55074501 0.13463099 19.9247
-0.52754599 0.134069 19.9557
-0.50096899 0.135929 19.9718
-0.47915199 0.13411 20.004801
-0.45342901 0.13584 20.0474
-0.43103299 0.13467599 20.092699
-0.40582401 0.135473 20.1229
-0.38268399 0.134817 20.1705
-0.35960099 0.134146 20.2244
-0.32911801 0.139723 20.2787
-0.31117401 0.135001 20.362499
1.84954 0.153832 25.285299
1.86473 0.142774 25.219999
1.9111 0.15457299 25.2444
1.93949 0.152702 25.226299
1.96784 0.150828 25.2082
1.99664 0.14978801 25.184299
2.0250499 0.147586 25.1733
2.05426 0.146474 25.157101
2.0847001 0.146182 25.145599
2.1209099 0.148306 25.1744
2.1510601 0.14843599 25.1535
2.18259 0.146993 25.1719
2.2128401 0.147496 25.148001
1.82855 0.101048 20.135799
1.85513 0.103991 20.113001
1.87559 0.110228 19.9793
1.8945 0.098916098 20.0494
1.9178801 0.098388001 20.0354
1.9412301 0.097854197 20.0214
1.96538 0.099491499 19.990801
1.9839 0.095303699 19.969
2.0035 0.092629097 19.941601
2.0273199 0.093910404 19.914
2.0476699 0.092033602 19.8867
2.56833 0.082616203 19.9258
2.59305 0.0810792 19.9359
2.6203599 0.081907697 19.9459
2.64767 0.0827315 19.955999
2.67523 0.0833221 19.969601
2.7021 0.082152098 19.992201
2.7274499 0.081063896 20.002199
2.7607801 0.081832901 20.056801
2.7917399 0.083306096 20.087099
2.8201499 0.081259198 20.126101
2.84816 0.080350898 20.152399
-1.33691 0.168392 20.260099
-1.30776 0.167724 20.197399
-1.2707601 0.171735 20.101601
-1.25194 0.16574501 20.0895
-1.22221 0.167458 20.052299
-1.19647 0.167344 20.040001
-1.16897 0.16819599 20.018299
-1.14281 0.16819599 20.000601
-1.11769 0.167951 19.9937
-1.0908999 0.16833 19.9723
-1.06587 0.16732299 19.951599
-1.04036 0.16719 19.9394
-1.01661 0.166078 19.936399
-0.99227899 0.165013 19.9247
-0.964028 0.16618399 19.890499
-0.93867302 0.166627 19.890499
-0.91499901 0.165502 19.8874
-0.89133102 0.164373 19.884399
-0.86767101 0.163238 19.881399
-0.84038001 0.16450401 19.8626
-0.81488001 0.16429099 19.844
-0.789159 0.165069 19.8435
-0.76556998 0.163922 19.840401
-0.74198902 0.16277 19.837299
-0.717224 0.16294301 19.8421
-0.69294697 0.16288 19.8521
-0.66873401 0.162824 19.864201
-0.64595097 0.161461 19.874901
-0.623142 0.16009299 19.8855
-0.59932202 0.15978301 19.902599
-0.57426798 0.16026101 19.912399
-0.54826599 0.161734 19.928699
-0.52820301 0.158545 19.960899
-0.50095999 0.16125099 19.9856
-0.478939 0.159738 20.0221
-0.45388499 0.160594 20.052601
-0.43192801 0.159197 20.101601
-0.40651199 0.159897 20.119699
-0.38346201 0.15955999 20.181
-0.359198 0.160151 20.2428
-0.33346099 0.162187 20.318199
-0.31195599 0.160117 20.380899
1.84995 0.18667801 25.272499
1.87339 0.181242 25.2376
1.9108 0.186413 25.2372
1.93902 0.184394 25.2188
1.96834 0.18327001 25.2027
1.9967999 0.181058 25.1917
2.0260401 0.179924 25.175501
2.05444 0.17770401 25.164499
2.0839901 0.177449 25.140499
2.1207399 0.181757 25.1455
2.1503301 0.180362 25.1392
2.18383 0.181058 25.1532
2.21661 0.18032899 25.177601
1.85511 0.12829299 20.125099
1.87647 0.126442 20.1029
1.9179 0.122591 20.0474
1.94069 0.121968 20.027901
1.96442 0.122495 20.0056
1.98711 0.121872 19.9862
2.7302401 0.106046 20.025299
2.7564001 0.105674 20.035299
2.7841001 0.10626 20.048901
2.81406 0.105742 20.087799
2.8503799 0.108506 20.1467
-1.3350101 0.19398101 20.2414
-1.30597 0.193102 20.1779
-1.24991 0.191553 20.075001
-1.22166 0.19261201 20.048
-1.19475 0.193222 20.031401
-1.16792 0.193422 20.008499
-1.14254 0.193042 19.9958
-1.1187 0.191939 19.992901
-1.09183 0.191725 19.959999
-1.06536 0.19235601 19.947399
-1.04268 0.18989401 19.9363
-1.01757 0.189294 19.9214
-0.99004501 0.190135 19.8941
-0.96578097 0.189055 19.882299
-0.93988502 0.190622 19.8955
-0.91620499 0.189493 19.8925
-0.89199299 0.188402 19.8808
-0.86628801 0.18874 19.872
-0.84032297 0.18898501 19.855801
-0.81509399 0.188811 19.843599
-0.79019201 0.18888301 19.842899
-0.76674497 0.18785501 19.845501
-0.74315798 0.186698 19.8424
-0.71838999 0.186877 19.8473
-0.69361299 0.187051 19.8522
-0.66945899 0.18701901 19.865801
-0.64557302 0.18640999 19.871
-0.62319899 0.184683 19.8815
-0.599787 0.184365 19.9076
-0.57437098 0.185277 19.9207
-0.54892099 0.18618201 19.9338
-0.52686203 0.185169 19.979099
-0.50210202 0.185349 19.990999
-0.47922599 0.18426199 20.015699
-0.45468 0.185206 20.062901
-0.431788 0.184843 20.118299
-0.405426 0.186544 20.1427
-0.384238 0.184323 20.1915
-0.360654 0.184383 20.253
