# .PCD v0.7 - Point Cloud Data file format
VERSION 0.7
FIELDS x y z
SIZE 4 4 4
TYPE F F F
COUNT 1 1 1
WIDTH 1713
HEIGHT 1
VIEWPOINT 0 0 0 1 0 0 0
POINTS 1713
DATA ascii
0.0089418702 -1.56075 19.867599
0.032464899 -1.56165 19.863001
0.0559761 -1.5625499 19.8584
0.082784601 -1.55984 19.844101
0.107775 -1.55803 19.8223
0.132548 -1.55775 19.817101
0.155973 -1.55866 19.8125
0.179386 -1.55957 19.8078
0.202787 -1.56048 19.803101
0.22617599 -1.56139 19.798401
0.25220001 -1.55995 19.7925
0.27676401 -1.56078 19.7981
0.302048 -1.56048 19.798
0.32697701 -1.56075 19.800699
0.35032001 -1.56168 19.795799
0.37436801 -1.56274 19.798901
0.39935899 -1.5633 19.805
0.42527699 -1.56282 19.808399
0.44995999 -1.56335 19.8113
0.473272 -1.56429 19.8064
0.49892899 -1.5650899 19.820101
0.52387899 -1.56538 19.822599
0.54883099 -1.56568 19.825199
0.57212299 -1.56663 19.820101
0.59659398 -1.56686 19.8179
0.62202698 -1.56725 19.825001
0.64692497 -1.56848 19.835699
0.67158502 -1.56937 19.841
0.69679099 -1.5709701 19.856899
0.72111797 -1.57331 19.8724
0.74587399 -1.57388 19.875099
0.769494 -1.57529 19.8762
0.79565102 -1.57567 19.887699
0.82178998 -1.57538 19.893101
0.84752601 -1.57723 19.913601
0.87229401 -1.58015 19.935801
0.89827502 -1.58139 19.9522
0.92369002 -1.58398 19.975401
0.949503 -1.58768 20.010401
0.97642499 -1.59148 20.0534
1.00223 -1.59435 20.0802
1.02801 -1.59894 20.1201
1.05539 -1.60286 20.1651
1.08454 -1.60455 20.203899
1.10876 -1.60992 20.2372
1.13866 -1.61186 20.281601
1.1669 -1.61632 20.333599
1.1930799 -1.6191601 20.358601
1.2192301 -1.6235 20.3943
1.24713 -1.62746 20.438
1.27588 -1.63254 20.4949
1.30476 -1.63922 20.563499
1.33646 -1.64668 20.6548
1.47938 -1.76315 22.0672
1.50986 -1.7663701 22.1064
1.53924 -1.77071 22.145901
1.57091 -1.77595 22.205299
1.602 -1.78062 22.256399
1.63508 -1.78605 22.323999
1.66836 -1.7920001 22.3953
1.70078 -1.79855 22.464399
1.74051 -1.8065701 22.5861
1.7743 -1.8167 22.684799
1.81367 -1.8254499 22.8057
1.85445 -1.8378299 22.9569
1.8976001 -1.85596 23.1572
1.94335 -1.8716 23.3535
2.0692999 -1.93964 24.1679
2.1089201 -1.9439501 24.246401
2.14256 -1.94868 24.2927
2.1745801 -1.94949 24.3048
2.2081101 -1.94932 24.319099
2.2395201 -1.9504499 24.3295
2.2682199 -1.95417 24.3407
2.30286 -1.95437 24.3627
2.33371 -1.95704 24.378799
2.3645599 -1.95766 24.382401
2.39852 -1.95842 24.4034
2.4301901 -1.95834 24.407
2.4621401 -1.96025 24.4237
2.4921401 -1.9640501 24.440901
2.5272 -1.96799 24.4849
2.5631001 -1.96796 24.509899
2.59566 -1.9723901 24.5429
2.6308801 -1.97561 24.582199
2.6691899 -1.97973 24.6416
2.7051699 -1.9833 24.6854
2.7434001 -1.99028 24.759001
-2.2655399 -1.62927 21.122801
-2.2002101 -1.62005 21.0035
-2.1649001 -1.61308 20.952299
-2.1401801 -1.61443 20.9198
-2.1072299 -1.6091599 20.8727
-2.0743799 -1.60385 20.832701
-2.0416501 -1.59857 20.7929
-2.0111201 -1.59497 20.7649
-1.98669 -1.5962 20.738701
-1.9598401 -1.59544 20.710899
-1.92998 -1.5922 20.681101
-1.90064 -1.58934 20.657499
-1.87137 -1.58649 20.6339
-1.84364 -1.58485 20.6147
-1.8172899 -1.58436 20.606701
-1.79243 -1.58508 20.603001
-1.76612 -1.5846 20.594999
-1.7412699 -1.58532 20.591299
-1.7136101 -1.58366 20.577
-1.68362 -1.58016 20.57
-1.65835 -1.58061 20.574699
-1.63234 -1.5802799 20.5651
-1.6075799 -1.5811 20.566401
-1.58181 -1.5810699 20.565399
-1.55704 -1.58182 20.5616
-1.53228 -1.5825599 20.557699
-1.50653 -1.58255 20.5567
-1.48074 -1.58269 20.565901
-1.45497 -1.58276 20.569901
-1.42889 -1.5824701 20.568001
-1.40415 -1.58323 20.563999
-1.37942 -1.584 20.559999
-1.3547 -1.58477 20.556
-1.32856 -1.58462 20.5625
-1.30281 -1.58481 20.5693
-1.27625 -1.58434 20.575701
-1.2515399 -1.58512 20.571501
-1.22684 -1.58591 20.5674
-1.2023799 -1.58706 20.569099
-1.17486 -1.5859801 20.5805
-1.14828 -1.58553 20.5867
-1.12359 -1.5863301 20.5825
-1.09891 -1.58713 20.578199
-1.07424 -1.58793 20.5739
-1.04802 -1.5878299 20.5802
-1.02159 -1.58786 20.5951
-0.99556297 -1.58762 20.592899
-0.971075 -1.5888 20.594299
-0.94521803 -1.58894 20.5979
-0.91935599 -1.58907 20.6015
-0.89227402 -1.5885299 20.6131
-0.86885899 -1.59057 20.6127
-0.84596598 -1.59372 20.628
-0.82114702 -1.5957299 20.653299
-0.79519302 -1.59626 20.6654
-0.76942402 -1.5963399 20.6637
-0.74201202 -1.5959001 20.6803
-0.71604401 -1.5960701 20.683701
-0.69292998 -1.5987099 20.688499
-0.666201 -1.5985 20.696501
-0.63941199 -1.59727 20.6856
-0.62327999 -1.6055501 20.685101
-0.50308198 -1.57645 20.4118
-0.47576401 -1.5727201 20.3713
-0.45128399 -1.57072 20.320999
-0.422804 -1.56598 20.283001
-0.39348799 -1.56011 20.239
-0.37308401 -1.56278 20.213699
-0.346277 -1.55911 20.174
-0.31955501 -1.55652 20.151199
-0.29200399 -1.55243 20.116899
-0.26909801 -1.5527 20.0905
-0.243981 -1.55081 20.0602
-0.21890999 -1.54926 20.035601
-0.193858 -1.54808 20.0165
-0.16622899 -1.54381 19.985201
-0.141463 -1.54353 19.976801
-0.115019 -1.54045 19.9494
-0.090112001 -1.5396301 19.936001
-0.065239102 -1.53881 19.9226
-0.040941499 -1.53848 19.9095
-0.0165859 -1.5371799 19.884701
0.0076879798 -1.53705 19.874901
0.031219 -1.5379601 19.8703
0.056597002 -1.53619 19.8519
0.082227603 -1.53398 19.831301
0.107773 -1.53286 19.823601
0.13133501 -1.53411 19.8244
0.15476801 -1.53503 19.8197
0.178054 -1.5355999 19.809601
0.202714 -1.5351599 19.801701
0.227203 -1.53439 19.7883
0.25258899 -1.53392 19.787399
0.27747899 -1.53439 19.7922
0.30346301 -1.5328 19.7845
0.32711601 -1.5348099 19.7946
0.35137999 -1.53413 19.781
0.375126 -1.53539 19.7836
0.39942801 -1.53734 19.798401
0.42554101 -1.53699 19.805
0.44938299 -1.5375299 19.800699
0.47323701 -1.53844 19.8002
0.49708799 -1.53935 19.799801
0.52132499 -1.54179 19.817801
0.54733402 -1.54143 19.822901
0.57104599 -1.54302 19.8276
0.59552503 -1.54324 19.8253
0.620965 -1.54362 19.8325
0.646415 -1.54401 19.839701
0.67088598 -1.54424 19.8374
0.69690698 -1.54449 19.847601
0.72250903 -1.54514 19.857901
0.74574202 -1.54795 19.869101
0.76943898 -1.5494601 19.872
0.79604501 -1.5508 19.895599
0.82078803 -1.5517 19.9007
0.845541 -1.5526 19.9058
0.87127298 -1.5539 19.921499
0.896501 -1.55601 19.9401
0.92190403 -1.55857 19.9634
0.948057 -1.56233 20.001801
0.976605 -1.56558 20.0525
1.00016 -1.56846 20.063499
1.02959 -1.5711 20.1141
1.05707 -1.57567 20.1656
1.08078 -1.57858 20.1766
1.10985 -1.5819 20.227699
1.1373 -1.5862499 20.2749
1.16381 -1.58952 20.306499
1.19125 -1.59252 20.3416
1.21694 -1.5961 20.3689
1.24552 -1.6016001 20.429501
1.27446 -1.60668 20.488199
1.30334 -1.61224 20.5492
1.33295 -1.61991 20.629499
1.47894 -1.73619 22.073601
1.5075999 -1.73773 22.0895
1.5383101 -1.74345 22.1478
1.57028 -1.74701 22.1978
1.60423 -1.75225 22.2712
1.6373301 -1.75761 22.3389
1.66997 -1.76272 22.400999
1.70241 -1.7691801 22.4702
1.73707 -1.7767299 22.559099
1.77344 -1.78598 22.6684
1.8092999 -1.79524 22.773001
1.84816 -1.8053499 22.899401
1.89115 -1.82455 23.107901
1.94221 -1.84198 23.348801
1.99177 -1.86183 23.5931
2.07109 -1.9062999 24.163
2.1070001 -1.91363 24.2402
2.14187 -1.91575 24.277399
2.17485 -1.91976 24.3153
2.2046499 -1.92067 24.3155
2.23926 -1.92097 24.338699
2.2683101 -1.92137 24.331499
2.3002701 -1.92275 24.346201
2.3329699 -1.9227 24.356199
2.3643799 -1.92466 24.371
2.39783 -1.92626 24.394501
2.4273801 -1.92928 24.4053
2.4619601 -1.93068 24.4331
2.4927101 -1.93028 24.429701
2.52579 -1.9332 24.457899
2.5594399 -1.93644 24.490499
2.5943501 -1.93856 24.5228
2.62796 -1.9420201 24.5555
2.6652999 -1.94612 24.6105
2.70138 -1.95157 24.666
2.7433801 -1.95634 24.746799
2.77794 -1.9630001 24.799801
-2.26636 -1.60329 21.1112
-2.19751 -1.59137 20.9904
-2.1669099 -1.58808 20.9599
-2.1375301 -1.58586 20.9069
-2.1061499 -1.58187 20.8643
-2.0748 -1.57777 20.8358
-2.0420699 -1.57254 20.796
-2.0104799 -1.56813 20.759199
-1.98461 -1.56823 20.7321
-1.95976 -1.56911 20.7113
-1.92898 -1.56517 20.672899
-1.90104 -1.56347 20.6605
-1.87108 -1.5600801 20.6313
-1.84403 -1.5590301 20.6178
-1.81915 -1.55975 20.6141
-1.79427 -1.56048 20.610399
-1.7673 -1.55944 20.5968
-1.74026 -1.55836 20.5881
-1.71252 -1.55667 20.5777
-1.68469 -1.55495 20.572001
-1.6589299 -1.5549901 20.5763
-1.63414 -1.55573 20.5725
-1.60838 -1.55577 20.5767
-1.5836 -1.55652 20.572901
-1.55882 -1.5572701 20.569
-1.5330499 -1.55725 20.568001
-1.50828 -1.55808 20.5693
-1.4825 -1.55814 20.573299
-1.45539 -1.55715 20.5795
-1.43063 -1.55792 20.5755
-1.40589 -1.55869 20.571501
-1.38115 -1.5594701 20.567499
-1.3566999 -1.5606 20.569401
-1.32924 -1.55949 20.580999
-1.30269 -1.55901 20.587299
-1.2779599 -1.5598 20.5832
-1.25324 -1.56058 20.5791
-1.22853 -1.56138 20.5749
-1.20235 -1.56124 20.5814
-1.17654 -1.56144 20.5881
-1.14995 -1.56098 20.5944
-1.12525 -1.56179 20.590099
-1.1005599 -1.56259 20.5858
-1.07463 -1.56253 20.586599
-1.04849 -1.56269 20.598801
-1.02187 -1.56225 20.6049
-0.99736899 -1.56343 20.6064
-0.97269499 -1.56425 20.601999
-0.94563001 -1.5636899 20.613701
-0.91975498 -1.56383 20.617201
-0.89387602 -1.56397 20.6208
-0.86964399 -1.5658799 20.634001
-0.84538198 -1.5678 20.6471
-0.82147998 -1.5707999 20.6779
-0.79676998 -1.57165 20.6733
-0.76954699 -1.57111 20.684799
-0.743388 -1.57135 20.6933
-0.71770298 -1.5718 20.6975
-0.69433701 -1.57437 20.705099
-0.66667002 -1.57296 20.7047
-0.640154 -1.57254 20.7048
-0.61912203 -1.5759799 20.6901
-0.472956 -1.54427 20.3682
-0.447193 -1.54234 20.337099
-0.42286801 -1.54111 20.298401
-0.39444199 -1.53575 20.2491
-0.368945 -1.53385 20.218399
-0.34858599 -1.5365601 20.1931
-0.320932 -1.53249 20.158701
-0.292905 -1.52821 20.1269
-0.26767099 -1.52703 20.1077
-0.241262 -1.52277 20.057199
-0.22024301 -1.52536 20.0429
-0.195182 -1.5242 20.023899
-0.16754299 -1.5199701 19.9925
-0.142544 -1.51916 19.979099
-0.116315 -1.51665 19.956699
-0.091399103 -1.5158401 19.9433
-0.066517398 -1.51504 19.929899
-0.040440701 -1.51255 19.9077
-0.0157269 -1.51142 19.8888
0.0091232499 -1.51097 19.880899
0.032064799 -1.51177 19.868401
0.057053 -1.51008 19.846701
0.081706002 -1.5093 19.8333
0.106556 -1.5092 19.830799
0.130125 -1.51046 19.8316
0.154705 -1.50969 19.8183
0.179249 -1.50893 19.804899
0.20264401 -1.50985 19.800301
0.227263 -1.50855 19.782
0.25173599 -1.50867 19.778999
0.278045 -1.50792 19.783899
0.30295199 -1.50818 19.7866
0.32786199 -1.50845 19.7894
0.351188 -1.50939 19.784599
0.37566799 -1.50959 19.7826
0.39940599 -1.51061 19.782499
0.42531201 -1.51123 19.7978
0.44908699 -1.5120699 19.796
0.473205 -1.5125999 19.7941
0.49700701 -1.51437 19.802
0.52200699 -1.5154099 19.8127
0.54702598 -1.51645 19.8235
0.57188499 -1.516 19.817801
0.595011 -1.51878 19.829201
0.62006599 -1.5193599 19.835199
0.646016 -1.51889 19.8384
0.669842 -1.5206 19.844801
0.69431502 -1.52084 19.842501
0.72201103 -1.52064 19.8619
0.74561203 -1.52204 19.863199
0.76944602 -1.52335 19.8654
0.79473698 -1.52493 19.8813
0.819148 -1.5272599 19.896799
0.84429401 -1.52825 19.9058
0.87051201 -1.52862 19.917299
0.89646202 -1.52982 19.933701
0.91999799 -1.5339 19.9564
0.94964498 -1.53598 20.0068
0.974549 -1.53974 20.035801
1.00184 -1.5414 20.0639
1.0290999 -1.54518 20.1089
1.05466 -1.54848 20.1369
1.08095 -1.5525399 20.1758
1.10772 -1.55475 20.202499
1.13579 -1.5600899 20.262501
1.16249 -1.5621099 20.285999
1.1881 -1.5663 20.318501
1.21815 -1.56997 20.376499
1.24835 -1.57367 20.4347
1.27466 -1.57858 20.4753
1.30627 -1.58486 20.560301
1.33737 -1.5933599 20.657301
1.47884 -1.70587 22.0578
1.50673 -1.7116801 22.099899
1.5377001 -1.7146 22.140301
1.57249 -1.71869 22.2125
1.6036 -1.72325 22.2637
1.63562 -1.7289799 22.3279
1.6677999 -1.73474 22.3925
1.70021 -1.74112 22.461599
1.73596 -1.7476 22.5506
1.77089 -1.75565 22.6441
1.8067501 -1.76645 22.760099
1.84744 -1.7762901 22.8969
1.89235 -1.78926 23.077299
1.94182 -1.80714 23.313999
1.98728 -1.82666 23.534599
2.06603 -1.8744 24.1276
2.10585 -1.88091 24.2229
2.1403501 -1.8837399 24.263
2.1746099 -1.88676 24.3022
2.2042 -1.88877 24.3083
2.23598 -1.89122 24.329201
2.26846 -1.89151 24.3405
2.2992699 -1.89212 24.3442
2.3331399 -1.89282 24.365299
2.36218 -1.89323 24.358
2.3966401 -1.89459 24.3857
2.4252801 -1.89539 24.3785
2.4602599 -1.89849 24.4188
2.4913299 -1.89906 24.423
2.5241599 -1.90184 24.449301
2.56003 -1.90292 24.4813
2.5931799 -1.90553 24.5075
2.6256399 -1.90915 24.535601
2.6656301 -1.91221 24.598801
2.69978 -1.9165699 24.6388
2.7379799 -1.9213001 24.700899
2.7785599 -1.92853 24.788099
-2.2676001 -1.5775599 21.109501
-2.2312901 -1.57029 21.041201
-2.1963799 -1.56394 20.982
-2.15853 -1.55519 20.914
-2.1385 -1.56019 20.9021
-2.1050601 -1.55461 20.8559
-2.07373 -1.55055 20.8274
-2.0440199 -1.5477 20.803499
-2.01143 -1.54257 20.7603
-1.98961 -1.5459501 20.741501
-1.95816 -1.54159 20.6992
-1.9293801 -1.53927 20.6759
-1.90005 -1.5364701 20.6523
-1.87227 -1.53488 20.633101
-1.84589 -1.5344 20.625099
-1.81954 -1.53394 20.6171
-1.794 -1.53411 20.607901
-1.76693 -1.53303 20.5991
-1.73795 -1.53038 20.587999
-1.71207 -1.53029 20.588499
-1.68555 -1.52967 20.5874
-1.66074 -1.5304101 20.5837
-1.63596 -1.53123 20.5851
-1.61017 -1.5312001 20.584101
-1.58538 -1.53196 20.580299
-1.5606 -1.53271 20.5765
-1.53482 -1.5326999 20.575399
-1.50903 -1.53282 20.5847
-1.48191 -1.5318201 20.5909
-1.4555 -1.53119 20.583099
-1.4323699 -1.53336 20.583
-1.40762 -1.53414 20.579
-1.38288 -1.53492 20.575001
-1.3554699 -1.53359 20.5751
-1.3291399 -1.5336601 20.599001
-1.30439 -1.5344501 20.5949
-1.27806 -1.53383 20.586901
-1.25334 -1.5346299 20.5828
-1.2286299 -1.53543 20.578699
-1.20231 -1.5354 20.5938
-1.17588 -1.53491 20.5944
-1.15004 -1.53502 20.5982
-1.12691 -1.53723 20.5977
-1.10221 -1.53804 20.593399
-1.0759799 -1.53792 20.5998
-1.0482 -1.53686 20.616899
-1.0235 -1.53768 20.6126
-0.99881399 -1.53851 20.6082
-0.97325498 -1.53892 20.6126
-0.94724101 -1.53912 20.6213
-0.92121297 -1.53932 20.6301
-0.89440697 -1.53861 20.631399
-0.86945403 -1.54 20.646601
-0.84622598 -1.54327 20.6719
-0.823062 -1.54616 20.685699
-0.79726797 -1.54624 20.684
-0.77080601 -1.54642 20.6975
-0.74387002 -1.54593 20.7041
-0.72060901 -1.54884 20.7178
-0.69474202 -1.54872 20.7124
-0.66847801 -1.5493701 20.730301
-0.514817 -1.53826 20.483101
-0.44862601 -1.51809 20.3447
-0.42991999 -1.52279 20.325701
-0.40003899 -1.51573 20.2672
-0.370341 -1.50973 20.225901
-0.34812701 -1.51087 20.1996
-0.32229999 -1.50878 20.1717
-0.29426801 -1.5042 20.1343
-0.26766101 -1.50168 20.111601
-0.23981 -1.49712 20.0744
-0.21878 -1.49973 20.060101
-0.194655 -1.49813 20.021999
-0.168855 -1.49611 19.9998
-0.143847 -1.49532 19.9863
-0.11739 -1.49229 19.9589
-0.092683502 -1.49204 19.9506
-0.066550203 -1.48957 19.928301
-0.041508202 -1.48825 19.909901
-0.0168995 -1.4880199 19.901501
0.0078742001 -1.48724 19.8881
0.033312201 -1.48502 19.863501
0.057160001 -1.4852099 19.8533
0.081874497 -1.48462 19.842699
0.105341 -1.48554 19.8381
0.128796 -1.48646 19.833401
0.154645 -1.48437 19.816799
0.179331 -1.48308 19.7985
0.203693 -1.48287 19.7901
0.227061 -1.4838001 19.7855
0.25197199 -1.48406 19.7883
0.27532199 -1.485 19.7836
0.30180001 -1.48458 19.7939
0.326718 -1.48484 19.7967
0.35005099 -1.48579 19.791901
0.37453899 -1.48599 19.7899
0.39828399 -1.48701 19.789801
0.42319801 -1.48729 19.7924
0.44855899 -1.48763 19.799801
0.47302899 -1.48785 19.797701
0.497495 -1.48807 19.795601
0.52287602 -1.48842 19.8029
0.54770702 -1.48961 19.8137
0.57182097 -1.49015 19.811701
0.596506 -1.4907 19.8146
0.62072003 -1.49297 19.8302
0.64677101 -1.49265 19.8358
0.67048001 -1.49421 19.839899
0.69381601 -1.4963599 19.8465
0.71937102 -1.49753 19.861601
0.74546802 -1.49722 19.8671
0.770172 -1.4981 19.872299
0.79533798 -1.49849 19.876499
0.81987 -1.50094 19.8943
0.84422398 -1.5024101 19.901501
0.86953998 -1.50436 19.920099
0.89571601 -1.5046099 19.930201
0.92182201 -1.50714 19.9592
0.94916999 -1.50999 19.999599
0.97378403 -1.51441 20.0324
1.00055 -1.51607 20.0571
1.02767 -1.51924 20.0965
1.05358 -1.52204 20.1234
1.07886 -1.52549 20.150499
1.10789 -1.52868 20.2017
1.13248 -1.53187 20.220699
1.15865 -1.53661 20.262699
1.19091 -1.5385 20.323601
1.21909 -1.54325 20.377701
1.24467 -1.54822 20.415001
1.27062 -1.55233 20.4475
1.30137 -1.5585999 20.527901
1.3349 -1.56473 20.624201
1.47788 -1.6781501 22.055201
1.50934 -1.68427 22.123199
1.5398901 -1.68633 22.154699
1.57082 -1.69023 22.2015
1.60267 -1.69586 22.2656
1.63351 -1.7016799 22.3237
1.6661201 -1.70664 22.3859
1.69954 -1.7119 22.4541
1.73491 -1.71896 22.5457
1.77468 -1.72642 22.6656
1.81343 -1.737 22.7985
1.84971 -1.74777 22.9158
1.89161 -1.76215 23.089199
1.93993 -1.77895 23.3139
1.98726 -1.7938 23.5166
2.06282 -1.84278 24.104099
2.1073501 -1.84852 24.222799
2.1400599 -1.85432 24.2719
2.1742201 -1.85561 24.2999
2.2032599 -1.85602 24.292801
2.23701 -1.85668 24.3139
2.2676001 -1.85934 24.3295
2.2985599 -1.85989 24.333799
2.3315599 -1.86159 24.356501
2.3617699 -1.86203 24.355801
2.39644 -1.8650399 24.395
2.4254899 -1.8654701 24.3876
2.4582701 -1.86542 24.397499
2.49037 -1.8668 24.412201
2.5234301 -1.86965 24.440399
2.55654 -1.87251 24.468599
2.5899301 -1.87393 24.4895
2.6261401 -1.87729 24.535999
2.6602499 -1.8798 24.566099
2.69472 -1.88331 24.603399
2.72949 -1.8878599 24.6476
2.7678299 -1.89377 24.7169
2.80814 -1.8991801 24.792601
-2.27069 -1.5533 21.110901
-2.23332 -1.54518 21.048901
-2.19524 -1.53646 20.980499
-2.1605201 -1.53021 20.921499
-2.1384101 -1.53363 20.9025
-2.1054699 -1.5285 20.8589
-2.07265 -1.52335 20.819
-2.0420401 -1.51983 20.791
-2.01265 -1.51726 20.7586
-1.99152 -1.52118 20.748899
-1.9567 -1.51419 20.6929
-1.92977 -1.5133801 20.6789
-1.89974 -1.5100501 20.6497
-1.87265 -1.50903 20.636101
-1.8477499 -1.50976 20.6325
-1.8207099 -1.50875 20.6189
-1.79372 -1.50775 20.605301
-1.76704 -1.50701 20.6005
-1.73795 -1.5043 20.5942
-1.71218 -1.50433 20.598499
-1.68736 -1.50508 20.594801
-1.66257 -1.50589 20.596201
-1.63677 -1.50586 20.595301
-1.6119601 -1.50662 20.591499
-1.58716 -1.50738 20.5877
-1.56137 -1.50736 20.5867
-1.53658 -1.50819 20.587999
-1.50978 -1.50752 20.6001
-1.48366 -1.5072401 20.598301
-1.45724 -1.50661 20.5905
-1.43248 -1.50739 20.586599
-1.40772 -1.50818 20.5826
-1.38192 -1.50824 20.586599
-1.35742 -1.50956 20.6
-1.33085 -1.50907 20.606501
-1.30449 -1.5084701 20.598499
-1.27976 -1.50927 20.5944
-1.25662 -1.51147 20.594101
-1.23042 -1.51132 20.6007
-1.20398 -1.51083 20.601299
-1.178 -1.51103 20.6138
-1.15328 -1.51184 20.609501
-1.1285599 -1.51266 20.6052
-1.1040601 -1.5138299 20.606899
-1.07647 -1.51273 20.618299
-1.04983 -1.51227 20.624599
-1.02513 -1.5131 20.620199
-1.00043 -1.51394 20.615801
-0.973809 -1.51375 20.628599
-0.94751197 -1.51388 20.6422
-0.92175603 -1.51394 20.640699
-0.89706802 -1.5147901 20.6362
-0.87104303 -1.51538 20.654301
-0.84772998 -1.5189 20.6884
-0.82356799 -1.52073 20.6964
-0.79741102 -1.52095 20.705099
-0.77124101 -1.52117 20.713699
-0.74553901 -1.5216 20.717899
-0.72101802 -1.52317 20.725
-0.69476098 -1.5238 20.743
-0.66924298 -1.52455 20.749599
-0.64752299 -1.52861 20.758101
-0.450232 -1.49586 20.3867
-0.43133801 -1.49856 20.3332
-0.40149 -1.49257 20.2917
-0.37175801 -1.4866101 20.250299
-0.353205 -1.49133 20.2314
-0.323672 -1.48472 20.1791
-0.29562801 -1.48018 20.1416
-0.269012 -1.47768 20.118999
-0.24115001 -1.47316 20.081699
-0.220109 -1.4758 20.0674
-0.191067 -1.4699399 20.026899
-0.170118 -1.4725699 20.0126
-0.14258701 -1.4680901 19.9758
-0.117631 -1.46732 19.9624
-0.092921503 -1.46708 19.954
-0.066578701 -1.46411 19.926701
-0.0417394 -1.46334 19.9133
-0.017127801 -1.46312 19.905001
0.0078358203 -1.46183 19.8866
0.032571301 -1.46108 19.873199
0.057167999 -1.4600101 19.854401
0.080654398 -1.46093 19.849899
0.104129 -1.4618599 19.8452
0.130015 -1.45978 19.8286
0.155855 -1.4577 19.812
0.17912699 -1.45831 19.802
0.20251399 -1.45925 19.7973
0.226037 -1.46051 19.798
0.24940699 -1.46146 19.7934
0.275729 -1.4607 19.7983
0.30065 -1.46095 19.8011
0.32557499 -1.46122 19.8039
0.34891701 -1.46217 19.799101
0.372246 -1.46313 19.7943
0.39716399 -1.4634 19.797001
0.422086 -1.46367 19.7997
0.44745299 -1.46401 19.8071
0.47193101 -1.4642299 19.805
0.49640399 -1.46445 19.8029
0.52179301 -1.4648 19.810301
0.54719198 -1.46515 19.8176
0.57165903 -1.46538 19.815399
0.59611899 -1.46562 19.8132
0.62137699 -1.4665999 19.825199
0.64642501 -1.46717 19.8312
0.67053401 -1.46773 19.8291
0.69345599 -1.47087 19.8419
0.71788102 -1.47224 19.849899
0.74302399 -1.47366 19.8641
0.76893502 -1.4737999 19.8722
0.79445797 -1.47418 19.879299
0.819475 -1.4754 19.889799
0.84421003 -1.47629 19.895
0.86895198 -1.47911 19.917299
0.89474201 -1.48087 19.937799
0.92205399 -1.48201 19.9641
0.94699401 -1.48536 19.9911
0.97270602 -1.48712 20.009701
0.999143 -1.4902101 20.0446
1.02653 -1.4928499 20.0821
1.05035 -1.49692 20.1049
1.08085 -1.49844 20.1541
1.10504 -1.50209 20.174999
1.13334 -1.5043401 20.2132
1.16171 -1.50911 20.2714
1.18875 -1.51229 20.306601
1.21534 -1.51598 20.342199
1.24211 -1.52068 20.3862
1.27003 -1.52494 20.4338
1.29958 -1.53131 20.507799
1.33038 -1.5372601 20.585699
1.4804699 -1.6507699 22.0784
1.5083801 -1.65649 22.120701
1.53908 -1.65793 22.149
1.56997 -1.66404 22.212
1.60102 -1.66792 22.259001
1.63513 -1.67247 22.3293
1.6684099 -1.67808 22.4009
1.70083 -1.6842999 22.4702
1.73252 -1.69217 22.5452
1.77239 -1.69864 22.659901
1.8076 -1.70681 22.755899
1.84697 -1.71659 22.8867
1.89025 -1.73458 23.0942
1.93376 -1.74779 23.268101
1.98344 -1.76502 23.5026
2.0653501 -1.8094 24.102501
2.10235 -1.81708 24.190701
2.1382599 -1.82067 24.244801
2.17097 -1.82593 24.2903
2.2033801 -1.82618 24.3016
2.23511 -1.82687 24.311501
2.26793 -1.82742 24.326599
2.2969601 -1.82785 24.319401
2.33131 -1.8291301 24.3473
2.3599401 -1.82994 24.3402
2.3935499 -1.83236 24.3703
2.4258001 -1.83349 24.384899
2.4584899 -1.83548 24.4067
2.4906001 -1.83684 24.4214
2.5234399 -1.83678 24.431299
2.5556099 -1.83815 24.445999
2.5885601 -1.84314 24.4858
2.6230199 -1.84442 24.5114
2.6582301 -1.84746 24.550699
2.6909499 -1.85176 24.583799
2.7321801 -1.8538001 24.6474
2.76824 -1.8584599 24.6985
2.8092799 -1.8659 24.790001
-2.29129 -1.52177 21.1203
-2.2744 -1.5295399 21.1133
-2.2295101 -1.5158 21.023199
-2.1932001 -1.50843 20.966299
-2.1624999 -1.5052201 20.9291
-2.1331699 -1.5032099 20.8762
-2.1036899 -1.50072 20.8515
-2.07305 -1.49727 20.822001
-2.04037 -1.49224 20.778799
-2.01457 -1.49245 20.766001
-1.9833601 -1.48844 20.726801
-1.95858 -1.48947 20.7003
-1.93094 -1.48812 20.680599
-1.90092 -1.48483 20.6514
-1.87451 -1.48437 20.6434
-1.84813 -1.48393 20.635401
-1.82042 -1.48239 20.616301
-1.79251 -1.48066 20.610701
-1.76644 -1.48042 20.6063
-1.73884 -1.47896 20.609501
-1.714 -1.47972 20.605801
-1.6892 -1.48052 20.6073
-1.66338 -1.4805 20.6064
-1.6385601 -1.4812599 20.602699
-1.61374 -1.48202 20.5989
-1.58794 -1.48201 20.5979
-1.56194 -1.4817899 20.5933
-1.53663 -1.48224 20.598101
-1.50956 -1.48119 20.597799
-1.48376 -1.48124 20.6019
-1.45898 -1.48203 20.5979
-1.4342099 -1.48281 20.594
-1.4084001 -1.48287 20.598101
-1.38068 -1.48121 20.5923
-1.3544101 -1.48104 20.6047
-1.32907 -1.4813499 20.6003
-1.30432 -1.48215 20.5963
-1.27959 -1.48295 20.592199
-1.25428 -1.48327 20.5877
-1.22758 -1.48262 20.591101
-1.19884 -1.48025 20.593399
-1.17567 -1.4826601 20.602501
-1.15157 -1.48412 20.6036
-1.12687 -1.4849401 20.5993
-1.10141 -1.4852901 20.6005
-1.07619 -1.48683 20.636499
-1.05147 -1.4876699 20.6322
-1.02675 -1.48851 20.6278
-1.0004801 -1.48838 20.634199
-0.975155 -1.48908 20.6411
-0.94911802 -1.48926 20.6499
-0.92229199 -1.4885499 20.6513
-0.89676702 -1.48938 20.6654
-0.87146801 -1.49032 20.6765
-0.84931302 -1.49424 20.696199
-0.82402998 -1.49546 20.712601
-0.797732 -1.49555 20.721001
-0.77172798 -1.4957 20.724501
-0.745511 -1.4963 20.7425
-0.72204399 -1.49955 20.7679
-0.69860703 -1.50211 20.7756
-0.67248201 -1.5021 20.775999
-0.64585298 -1.50188 20.7808
-0.42726001 -1.47045 20.3552
-0.37595001 -1.46586 20.276199
-0.345368 -1.4585 20.223101
-0.32227501 -1.45889 20.1964
-0.29559499 -1.45543 20.156799
-0.271723 -1.45503 20.129801
-0.242461 -1.44952 20.094601
-0.218705 -1.44945 20.0734
-0.19238301 -1.44603 20.034201
-0.171424 -1.44868 20.0198
-0.143883 -1.44425 19.983
-0.118918 -1.44349 19.969601
-0.0939871 -1.44274 19.9562
-0.067847602 -1.44032 19.933901
-0.0429997 -1.43957 19.9205
-0.018185699 -1.43883 19.907101
0.00780159 -1.43642 19.885
0.032533199 -1.43569 19.871599
0.056045201 -1.43662 19.8671
0.08072 -1.43589 19.853701
0.105359 -1.4351701 19.840401
0.131115 -1.43279 19.818399
0.154535 -1.43373 19.813801
0.17794199 -1.43467 19.809099
0.20133799 -1.4356101 19.804501
0.224722 -1.43656 19.799801
0.24809401 -1.43751 19.795099
0.27529699 -1.4359601 19.7997
0.300576 -1.43566 19.7997
0.326033 -1.4347399 19.794001
0.34988901 -1.43523 19.789101
0.37320399 -1.43619 19.7843
0.39757401 -1.43669 19.7845
0.42170101 -1.43791 19.7903
0.448533 -1.43796 19.808599
0.47176099 -1.43946 19.808701
0.495886 -1.44001 19.8067
0.52089602 -1.44055 19.812799
0.545973 -1.4409 19.817301
0.57059199 -1.44174 19.822701
0.59386802 -1.4427299 19.817801
0.62048697 -1.44234 19.827801
0.64592499 -1.44269 19.8351
0.67038602 -1.44294 19.832899
0.69420803 -1.44464 19.8393
0.71981102 -1.4457099 19.854401
0.74455303 -1.4471 19.865101
0.76845002 -1.44928 19.876101
0.79345697 -1.45048 19.8867
0.81899703 -1.45086 19.893801
0.84495997 -1.451 19.901899
0.87043703 -1.45265 19.9196
0.89462 -1.45597 19.941799
0.92063701 -1.45676 19.955299
0.94656003 -1.45918 19.982
0.97190899 -1.4627301 20.0138
0.99933201 -1.46433 20.043699
1.0241899 -1.4676 20.0681
1.05316 -1.46905 20.107
1.07816 -1.47284 20.1357
1.10465 -1.47475 20.159201
1.132 -1.47886 20.206301
1.15838 -1.48142 20.2332
1.18547 -1.4861 20.281601
1.21275 -1.4896801 20.321699
1.23982 -1.49342 20.3608
1.26843 -1.4986399 20.4214
1.2972 -1.50388 20.482201
1.32766 -1.51065 20.565001
1.4795901 -1.6247 22.088699
1.50608 -1.6308399 22.125
1.53822 -1.63179 22.1595
1.56952 -1.63746 22.2225
1.60223 -1.6400599 22.2712
1.63534 -1.64556 22.342501
1.66741 -1.64935 22.3939
1.70016 -1.65509 22.462601
1.73276 -1.66126 22.5322
1.76863 -1.67072 22.6439
1.80652 -1.6782 22.752701
1.84561 -1.68923 22.8915
1.88195 -1.7022001 23.024599
1.93341 -1.71883 23.2715
1.97609 -1.7329299 23.445101
2.02705 -1.75049 23.6884
2.09829 -1.78528 24.1612
2.135 -1.79057 24.2318
2.1701901 -1.79217 24.268499
2.2025499 -1.79409 24.290501
2.23403 -1.7939399 24.2938
2.2663801 -1.79627 24.317699
2.29656 -1.7967 24.317101
2.3290801 -1.7985801 24.338699
2.3601201 -1.80005 24.349199
2.3928499 -1.79997 24.3592
2.42488 -1.8013 24.374001
2.4574699 -1.80158 24.385099
2.4909101 -1.80483 24.418699
2.5217299 -1.80749 24.4342
2.5541601 -1.80899 24.451099
2.5880101 -1.80879 24.4653
2.62128 -1.81232 24.498199
2.65465 -1.81586 24.531099
2.6928899 -1.81598 24.569201
2.72703 -1.82184 24.618601
2.76227 -1.82592 24.6628
2.8039899 -1.83224 24.7523
2.84113 -1.83692 24.8081
-2.29334 -1.49655 21.127899
-2.2738299 -1.50327 21.056999
-2.2267599 -1.48717 21.01
-2.19137 -1.48051 20.958799
-2.1598001 -1.47672 20.916
-2.1351299 -1.4782701 20.8836
-2.1024699 -1.47342 20.843201
-2.0734501 -1.4712 20.8249
-2.0402701 -1.46584 20.778999
-2.0119801 -1.46417 20.753201
-1.98331 -1.46218 20.7213
-1.96047 -1.46473 20.7076
-1.93062 -1.4616801 20.6779
-1.9012901 -1.4589601 20.654301
-1.8763601 -1.4597 20.6507
-1.84929 -1.45872 20.6371
-1.82043 -1.45627 20.6224
-1.79221 -1.4543101 20.608101
-1.76551 -1.45358 20.620501
-1.7406501 -1.45433 20.6168
-1.7158 -1.45509 20.613199
-1.69001 -1.45511 20.6175
-1.66517 -1.45588 20.6138
-1.64034 -1.45664 20.610001
-1.61411 -1.45623 20.6019
-1.5881 -1.45602 20.597401
-1.56258 -1.45634 20.608101
-1.53611 -1.4558001 20.608999
-1.5103 -1.45585 20.613199
-1.48551 -1.45664 20.609301
-1.4607199 -1.45742 20.605301
-1.43594 -1.45822 20.6014
-1.4046 -1.4535201 20.5907
-1.3794399 -1.45416 20.598
-1.3539799 -1.45447 20.5994
-1.32888 -1.45503 20.598
-1.30415 -1.45583 20.594
-1.27942 -1.45665 20.589899
-1.25067 -1.45427 20.592199
-1.22486 -1.45435 20.5961
-1.1988 -1.45411 20.594101
-1.17433 -1.45526 20.5959
-1.14964 -1.45608 20.5917
-1.12326 -1.45594 20.603901
-1.10215 -1.46071 20.636499
-1.07783 -1.4622101 20.6441
-1.05309 -1.46305 20.6397
-1.02837 -1.4639 20.635401
-1.00091 -1.46311 20.6528
-0.97544497 -1.46378 20.662001
-0.94966501 -1.46384 20.6605
-0.92388803 -1.46392 20.658899
-0.89753097 -1.46403 20.6726
-0.87232 -1.46523 20.6891
-0.85015202 -1.46912 20.708799
-0.825306 -1.4707 20.725201
-0.79912603 -1.4709001 20.733999
-0.77328998 -1.4709899 20.7323
-0.74659902 -1.4713399 20.754299
-0.72346598 -1.47506 20.7845
-0.70025098 -1.47769 20.7894
-0.67436099 -1.47779 20.7876
-0.64675498 -1.47728 20.804399
-0.496804 -1.44644 20.512199
-0.378286 -1.44312 20.295401
-0.346286 -1.4341201 20.233101
-0.32088399 -1.43238 20.202499
-0.29830599 -1.4330601 20.173201
-0.27303299 -1.43164 20.1483
-0.245129 -1.4272 20.111
-0.216445 -1.42167 20.067801
-0.19227301 -1.4213901 20.049101
-0.169919 -1.42303 20.0369
-0.14384399 -1.41904 19.986799
-0.120145 -1.41996 19.9823
-0.095262498 -1.41891 19.9634
-0.068907499 -1.41599 19.936001
-0.044257399 -1.4157799 19.9277
-0.0194348 -1.41506 19.914301
0.0065617501 -1.41268 19.892099
0.031301901 -1.41196 19.878799
0.0558323 -1.41176 19.870501
0.080679297 -1.41053 19.8521
0.105479 -1.40931 19.833799
0.12991799 -1.40912 19.8255
0.153345 -1.4100699 19.8209
0.176761 -1.41101 19.816299
0.20002501 -1.4116499 19.8062
0.223556 -1.41292 19.8069
0.25016099 -1.41011 19.790001
0.27559301 -1.41013 19.795401
0.301581 -1.40873 19.7896
0.32622999 -1.40852 19.7843
0.34991601 -1.40944 19.7827
0.37322301 -1.41041 19.777901
0.39907899 -1.4102499 19.7852
0.42374301 -1.4104199 19.7845
0.44848201 -1.41145 19.7941
0.471742 -1.41366 19.802401
0.49558899 -1.41457 19.801901
0.52027899 -1.4154 19.808201
0.54664898 -1.4156801 19.8239
0.57043499 -1.41696 19.826401
0.592812 -1.41909 19.825001
0.61943799 -1.41868 19.835199
0.64488298 -1.41903 19.8424
0.66935098 -1.4192801 19.8402
0.69381398 -1.41954 19.837999
0.71913898 -1.4205101 19.849899
0.74422598 -1.42108 19.855801
0.76807499 -1.42377 19.871599
0.79288602 -1.42463 19.8776
0.81858802 -1.42571 19.892599
0.842498 -1.42742 19.898899
0.86929202 -1.42705 19.9088
0.89454901 -1.4294 19.931101
0.91922098 -1.43154 19.946501
0.94656301 -1.43262 19.972799
0.97056103 -1.43699 20.001699
1.0001301 -1.43887 20.0508
1.02457 -1.44013 20.055
1.0512201 -1.44328 20.091801
1.07695 -1.4463 20.1199
1.10314 -1.44929 20.150499
1.1305 -1.45285 20.193899
1.15674 -1.4541301 20.2096
1.18214 -1.45899 20.2481
1.2104599 -1.46408 20.308399
1.24103 -1.46728 20.3682
1.2705899 -1.47188 20.431101
1.2993799 -1.47706 20.4921
1.33319 -1.48353 20.596201
1.47879 -1.59799 22.094801
1.50796 -1.60141 22.128901
1.53649 -1.60511 22.1602
1.56745 -1.6094199 22.2115
1.60243 -1.6131999 22.2843
1.6346999 -1.61652 22.3349
1.66688 -1.62198 22.399599
1.6993001 -1.62804 22.469
1.7319 -1.63414 22.5387
1.7685601 -1.64145 22.6413
1.80524 -1.65105 22.758301
1.84246 -1.65756 22.855499
1.89136 -1.67272 23.0821
1.93198 -1.6877 23.253599
1.97852 -1.70165 23.451099
2.0243101 -1.72135 23.679701
2.0921199 -1.75339 24.117901
2.13748 -1.75825 24.237801
2.17031 -1.76235 24.2773
2.2028899 -1.76223 24.2875
2.23191 -1.76267 24.280399
2.26402 -1.76411 24.2976
2.29476 -1.7647001 24.301399
2.3293099 -1.7639 24.317801
2.36045 -1.7681299 24.3463
2.39113 -1.77075 24.3619
2.4250901 -1.7713701 24.382999
2.4567299 -1.7712801 24.386801
2.48996 -1.7726099 24.407801
2.5220599 -1.77354 24.419901
2.5561199 -1.7781301 24.4645
2.58706 -1.77876 24.468
2.61956 -1.78025 24.4849
2.6550701 -1.78248 24.521799
2.69102 -1.78643 24.570601
2.72328 -1.78827 24.587299
2.75964 -1.79321 24.6429
2.79655 -1.7977901 24.6984
2.8426299 -1.8071001 24.827
-2.29146 -1.4684401 21.1203
-2.2741899 -1.4771301 21.0457
-2.22664 -1.4605401 21.0068
-2.1928301 -1.45514 20.9601
-2.1644001 -1.4539 20.9193
-2.13501 -1.45174 20.8839
-2.1036501 -1.44796 20.8449
-2.07235 -1.44405 20.816401
-2.0421801 -1.441 20.7864
-2.01267 -1.43847 20.751101
-1.9852 -1.43741 20.7286
-1.9603601 -1.4384201 20.707899
-1.93029 -1.43524 20.6751
-1.90315 -1.43427 20.6616
-1.87673 -1.43384 20.653601
-1.8489 -1.4322701 20.639299
-1.81982 -1.4296499 20.628201
-1.79311 -1.42892 20.6234
-1.7673301 -1.42893 20.6278
-1.74246 -1.42969 20.6241
-1.7176501 -1.4305 20.6257
-1.69181 -1.43047 20.6248
-1.66554 -1.43007 20.6168
-1.6407 -1.43084 20.613001
-1.6146801 -1.43063 20.6085
-1.58947 -1.43111 20.607901
-1.56268 -1.4304 20.620199
-1.53687 -1.4304301 20.624399
-1.51008 -1.42952 20.610701
-1.48528 -1.43031 20.6068
-1.45855 -1.42939 20.5931
-1.43216 -1.42902 20.601801
-1.40591 -1.42875 20.6094
-1.37967 -1.4283299 20.6045
-1.35479 -1.42908 20.604
-1.33004 -1.42989 20.599899
-1.30531 -1.43071 20.5959
-1.27707 -1.4288599 20.603701
-1.25125 -1.42893 20.6077
-1.22518 -1.42869 20.6057
-1.2007 -1.42984 20.6075
-1.17599 -1.43067 20.603399
-1.15016 -1.43076 20.607201
-1.12492 -1.43147 20.6164
-1.10146 -1.4341201 20.642799
-1.07614 -1.4344701 20.6381
-1.05317 -1.43703 20.643499
-1.02728 -1.43714 20.647301
-1.00252 -1.43847 20.6604
-0.97600001 -1.4383301 20.672501
-0.95020598 -1.43841 20.671
-0.924128 -1.43857 20.679899
-0.898036 -1.43875 20.6887
-0.87390202 -1.44055 20.6968
-0.851004 -1.4442 20.7272
-0.82547098 -1.4453 20.746401
-0.79961801 -1.44539 20.744699
-0.77355897 -1.44585 20.757
-0.74738002 -1.44637 20.7728
-0.725016 -1.45028 20.7924
-0.70070398 -1.4521199 20.800301
-0.67439598 -1.45233 20.808901
-0.64807498 -1.45254 20.817499
-0.41330001 -1.42992 20.3804
-0.322249 -1.40826 20.209801
-0.29279399 -1.4025 20.1688
-0.274376 -1.40759 20.1556
-0.246461 -1.40319 20.118299
-0.218615 -1.39912 20.086599
-0.192202 -1.39641 20.0585
-0.171221 -1.39911 20.0441
-0.143749 -1.39413 19.996099
-0.121426 -1.3961 19.9895
-0.095277898 -1.39342 19.961599
-0.069132298 -1.39105 19.9394
-0.0444794 -1.3908499 19.931101
-0.018237799 -1.38798 19.903799
0.0055124802 -1.3884 19.894199
0.030073199 -1.3882101 19.8859
0.054788001 -1.38752 19.872601
0.0806427 -1.38518 19.8505
0.105276 -1.38449 19.8372
0.128723 -1.38544 19.8326
0.152031 -1.38609 19.822599
0.175448 -1.38704 19.818001
0.20175999 -1.38456 19.801201
0.225136 -1.38552 19.796499
0.251715 -1.38296 19.782301
0.27661499 -1.3832099 19.7852
0.30151501 -1.38346 19.788099
0.32641801 -1.38371 19.790899
0.34973899 -1.38469 19.7862
0.37304801 -1.3856601 19.781401
0.397946 -1.3859299 19.784201
0.422847 -1.3861901 19.787001
0.448194 -1.38651 19.794399
0.47265199 -1.38674 19.7924
0.49638799 -1.3883899 19.799101
0.52228802 -1.38789 19.8025
0.54680401 -1.3885601 19.805599
0.57055598 -1.39054 19.815399
0.59365398 -1.39215 19.815201
0.618958 -1.39291 19.825899
0.64428002 -1.39367 19.8365
0.66920799 -1.39448 19.843901
0.69278902 -1.39587 19.845301
0.718261 -1.39622 19.852501
0.74374402 -1.39657 19.859699
0.767335 -1.39797 19.861
0.79427397 -1.39704 19.867701
0.81932098 -1.39943 19.889999
0.84237498 -1.40256 19.9028
0.867679 -1.40338 19.9118
0.89513302 -1.40293 19.9263
0.92081398 -1.4052401 19.9513
0.94560897 -1.40881 19.980301
0.97302401 -1.40987 20.006701
0.99757802 -1.41398 20.037399
1.02386 -1.41486 20.0525
1.05042 -1.41785 20.087601
1.07682 -1.41969 20.111
1.10185 -1.42342 20.139799
1.12941 -1.42495 20.1682
1.15386 -1.42917 20.1957
1.1854399 -1.43106 20.2547
1.21329 -1.43629 20.3134
1.24089 -1.44025 20.3591
1.27089 -1.4462 20.436501
1.29968 -1.45131 20.497499
1.32863 -1.45645 20.5588
1.47883 -1.56976 22.0951
1.51202 -1.57143 22.143299
1.54055 -1.57494 22.1735
1.5708801 -1.5795 22.222799
1.60256 -1.58428 22.281799
1.63255 -1.58869 22.326099
1.66497 -1.59384 22.3908
1.6973701 -1.59982 22.460199
1.72995 -1.60583 22.5299
1.76768 -1.61264 22.6367
1.80302 -1.62237 22.747299
1.84439 -1.62863 22.8696
1.88274 -1.64186 23.019501
1.92847 -1.65837 23.234699
1.98248 -1.6736701 23.4891
2.0253799 -1.6854 23.6481
2.0924799 -1.72174 24.114799
2.1346099 -1.72778 24.2243
2.1696999 -1.7301 24.2659
2.20228 -1.7302901 24.2782
2.2315099 -1.73158 24.278
2.2639501 -1.7334 24.299601
2.29565 -1.73344 24.3055
2.3264899 -1.73473 24.3141
2.3585999 -1.73546 24.326401
2.3920801 -1.7362601 24.3465
2.4243901 -1.73932 24.373899
2.4561501 -1.74203 24.3957
2.4885001 -1.74348 24.4128
2.5218799 -1.74255 24.420601
2.55389 -1.7443399 24.437401
2.58394 -1.7480201 24.4547
2.6200099 -1.75029 24.495701
2.6538501 -1.75068 24.5131
2.6872499 -1.75415 24.546
2.72104 -1.75735 24.578899
2.76018 -1.75957 24.6336
2.7964799 -1.76464 24.6894
2.83637 -1.77176 24.7745
-2.2943001 -1.44426 21.108
-2.26208 -1.44037 21.062
-2.2254601 -1.4331599 20.9981
-2.1912401 -1.42746 20.953501
-2.16219 -1.42576 20.9123
-2.13326 -1.42408 20.871401
-2.1040399 -1.42186 20.847799
-2.0712399 -1.4169101 20.807899
-2.0406499 -1.41354 20.7799
-2.0099699 -1.41005 20.749599
-1.98709 -1.41263 20.735901
-1.95728 -1.40984 20.6947
-1.93039 -1.40913 20.6784
-1.90412 -1.40881 20.676901
-1.877 -1.40786 20.6633
-1.84776 -1.40521 20.639799
-1.81981 -1.40351 20.634199
-1.7940201 -1.40351 20.6387
-1.76914 -1.4042701 20.635099
-1.74432 -1.4050699 20.6366
-1.71847 -1.40504 20.635799
-1.69217 -1.40465 20.6278
-1.66669 -1.4049 20.6185
-1.64127 -1.40522 20.6196
-1.61606 -1.4057 20.618999
-1.59092 -1.4062901 20.6266
-1.5632401 -1.40477 20.626801
-1.53663 -1.40409 20.621901
-1.50984 -1.40319 20.6082
-1.48506 -1.40398 20.6043
-1.4604501 -1.40501 20.6092
-1.43241 -1.40332 20.620701
-1.40634 -1.40299 20.610201
-1.38018 -1.4028 20.617001
-1.35514 -1.4033 20.6071
-1.33039 -1.40411 20.6031
-1.30458 -1.40418 20.6071
-1.2787499 -1.40425 20.611099
-1.25158 -1.40325 20.617201
-1.22709 -1.40439 20.619101
-1.20236 -1.40522 20.615
-1.17661 -1.40527 20.613701
-1.1506701 -1.40539 20.622801
-1.12482 -1.40548 20.626699
-1.09917 -1.40589 20.6364
-1.07601 -1.40813 20.636
-1.05409 -1.41194 20.655899
-1.0283 -1.41231 20.666201
-1.00217 -1.41248 20.6786
-0.97760397 -1.41366 20.680099
-0.95180303 -1.41374 20.6786
-0.92571902 -1.4139 20.6875
-0.89871198 -1.41359 20.7052
-0.875413 -1.41609 20.7132
-0.85213101 -1.41923 20.7388
-0.82704198 -1.42055 20.754101
-0.80010301 -1.41985 20.7554
-0.774499 -1.42094 20.774599
-0.74977899 -1.42287 20.7953
-0.72672099 -1.42598 20.8092
-0.70076001 -1.42662 20.8216
-0.67443401 -1.42682 20.8302
-0.64876503 -1.42791 20.846399
-0.37181801 -1.38693 20.311501
-0.32359701 -1.38537 20.239799
-0.29411 -1.37933 20.193001
-0.275686 -1.38414 20.174101
-0.24643201 -1.37782 20.122101
-0.221256 -1.37679 20.1029
-0.193473 -1.3727601 20.071301
-0.166251 -1.369 20.0373
-0.143604 -1.3695101 20.011
-0.121321 -1.3711801 19.9988
-0.093968198 -1.36659 19.956499
-0.0703227 -1.36753 19.952
-0.045529701 -1.3665299 19.9331
-0.0194802 -1.3642 19.9109
0.0052999598 -1.36351 19.8976
0.028847 -1.36446 19.893
0.053570401 -1.36378 19.8797
0.079434097 -1.36146 19.857599
0.104076 -1.36079 19.844299
0.12752999 -1.36175 19.839701
0.152115 -1.3610801 19.826401
0.17553499 -1.36204 19.8218
0.20118 -1.35975 19.799801
0.225806 -1.35939 19.791901
0.250563 -1.3593301 19.7894
0.27546999 -1.35957 19.792299
0.30037701 -1.35982 19.7952
0.32528701 -1.36007 19.798
0.348616 -1.36106 19.793301
0.37193301 -1.36204 19.788601
0.396404 -1.36227 19.7866
0.42174599 -1.36257 19.7941
0.447099 -1.36287 19.8016
0.47156501 -1.3631001 19.799601
0.49602601 -1.36334 19.7976
0.52140099 -1.36366 19.805
0.54632002 -1.36394 19.8076
0.57124197 -1.36422 19.810301
0.59359699 -1.3663501 19.809
0.62088299 -1.36639 19.8302
0.64473301 -1.36812 19.8377
0.66912401 -1.36866 19.8377
0.69277501 -1.37014 19.840799
0.71738499 -1.37193 19.855101
0.74251997 -1.3723 19.859501
0.76720601 -1.37315 19.864799
0.79330999 -1.37282 19.8703
0.818937 -1.37392 19.8855
0.842228 -1.37667 19.8967
0.866934 -1.37816 19.9074
0.89266801 -1.3793401 19.9233
0.92036599 -1.37937 19.943899
0.94561899 -1.38229 19.971001
0.97158903 -1.3846101 19.997801
0.99696201 -1.38755 20.0249
1.02246 -1.39002 20.0483
1.04928 -1.3915499 20.073099
1.0731 -1.39552 20.0959
1.10273 -1.39605 20.132099
1.12862 -1.3995 20.164801
1.15636 -1.40202 20.202499
1.1833 -1.40502 20.2377
1.20977 -1.409 20.277
1.23734 -1.41324 20.325399
1.2659 -1.4182301 20.386101
1.2955101 -1.4234999 20.4552
1.327 -1.43004 20.5462
1.48153 -1.53976 22.099899
1.5110199 -1.54466 22.1481
1.53978 -1.54608 22.1642
1.56902 -1.55158 22.2139
1.60007 -1.55524 22.261
1.63314 -1.56004 22.3291
1.66745 -1.56473 22.4034
1.7008899 -1.56959 22.472
1.73383 -1.57594 22.547001
1.77106 -1.58319 22.6546
1.80679 -1.591 22.7549
1.84322 -1.59914 22.8605
1.8884 -1.61376 23.0641
1.93547 -1.62818 23.274799
1.97501 -1.64173 23.43
2.0246899 -1.65762 23.660601
2.0937099 -1.6900001 24.1161
2.1326799 -1.69792 24.2201
2.1670301 -1.69771 24.240999
2.20117 -1.69883 24.268999
2.2297599 -1.69967 24.2621
2.26331 -1.69893 24.274
2.29387 -1.7015001 24.2897
2.3231001 -1.70281 24.2894
2.3552799 -1.70581 24.316799
2.38906 -1.70556 24.3323
2.4231999 -1.70776 24.364901
2.4565201 -1.7081701 24.381399
2.48948 -1.71056 24.407801
2.5190699 -1.71351 24.418699
2.55375 -1.7147 24.446699
2.5844901 -1.71434 24.443399
2.6192501 -1.7155401 24.4713
2.6514299 -1.72004 24.504601
2.68647 -1.72191 24.5371
2.72369 -1.72463 24.5856
2.7563601 -1.72808 24.613899
2.7941 -1.73326 24.678301
2.8363199 -1.73792 24.7621
2.8691599 -1.74321 24.8001
-2.3234301 -1.41889 21.149799
-2.28807 -1.41291 21.089899
-2.2581899 -1.4111 21.0362
-2.2242701 -1.4058 20.9893
-2.18944 -1.39972 20.940901
-2.16415 -1.4007601 20.919701
-2.13168 -1.39651 20.864799
-2.1044199 -1.3957601 20.850599
-2.07162 -1.3908499 20.810699
-2.03967 -1.38649 20.776699
-2.0118599 -1.3852299 20.756901
-1.98702 -1.38639 20.7304
-1.95591 -1.38257 20.6912
-1.93094 -1.38332 20.6877
-1.90466 -1.38307 20.678101
-1.87696 -1.3817101 20.657801
-1.84653 -1.37807 20.645
-1.82073 -1.37806 20.6495
-1.79584 -1.3788199 20.645901
-1.771 -1.37962 20.6476
-1.74514 -1.3796 20.646799
-1.71882 -1.37921 20.6387
-1.69332 -1.37946 20.6294
-1.66789 -1.3797801 20.6306
-1.64266 -1.38026 20.6301
-1.61534 -1.37905 20.633499
-1.58816 -1.3779401 20.632
-1.56119 -1.37696 20.623199
-1.5363801 -1.37775 20.6194
-1.51158 -1.3785501 20.615499
-1.4869601 -1.37957 20.620399
-1.4593 -1.37807 20.6206
-1.43336 -1.378 20.6241
-1.40774 -1.3782001 20.626699
-1.3816 -1.3778501 20.618401
-1.35684 -1.37867 20.6145
-1.3310601 -1.3787 20.6133
-1.30518 -1.37879 20.622601
-1.27935 -1.37886 20.6266
-1.25325 -1.37862 20.624701
-1.22876 -1.37976 20.626499
-1.20402 -1.3806 20.6224
-1.17817 -1.38068 20.626301
-1.15231 -1.38076 20.630199
-1.12511 -1.3797801 20.636299
-1.10189 -1.38211 20.6422
-1.07763 -1.38349 20.643499
-1.05389 -1.38553 20.654301
-1.027 -1.3853199 20.677999
-1.0022399 -1.38641 20.6824
-0.978149 -1.38818 20.690599
-0.95206201 -1.38833 20.6996
-0.92596 -1.3884799 20.7085
-0.900141 -1.3885601 20.7069
-0.87704003 -1.3918999 20.736099
-0.85234803 -1.3941 20.7694
-0.826464 -1.3942 20.767799
-0.80023801 -1.39437 20.7766
-0.77529502 -1.39591 20.7931
-0.75217801 -1.39932 20.817699
-0.72714901 -1.40088 20.8342
-0.700818 -1.40107 20.842899
-0.67487597 -1.40118 20.841101
-0.648664 -1.40247 20.873301
-0.384424 -1.3751 20.3757
-0.344881 -1.3586299 20.2866
-0.29682401 -1.3568701 20.2094
-0.27152899 -1.35525 20.1789
-0.244969 -1.35199 20.139299
-0.222103 -1.35253 20.1127
-0.19478001 -1.34878 20.0786
-0.167548 -1.34506 20.0445
-0.143454 -1.34486 20.0259
-0.121159 -1.34655 20.013599
-0.092399299 -1.34096 19.973499
-0.071580604 -1.34369 19.959101
-0.046778601 -1.34271 19.940201
-0.020719901 -1.34041 19.917999
0.0040686801 -1.33973 19.904699
0.028640199 -1.33957 19.8964
0.054730799 -1.33678 19.8692
0.078398302 -1.33724 19.859699
0.102878 -1.33708 19.8514
0.12749401 -1.3364201 19.837999
0.150933 -1.3373899 19.8335
0.17549101 -1.33674 19.8202
0.201133 -1.33447 19.798201
0.224649 -1.33574 19.799
0.249414 -1.33568 19.796499
0.27432701 -1.33593 19.7994
0.29924101 -1.33617 19.802299
0.32415801 -1.3364201 19.805201
0.34844401 -1.33629 19.796801
0.371764 -1.33729 19.792
0.395886 -1.3378299 19.790199
0.420854 -1.33834 19.796499
0.44589901 -1.33865 19.801201
0.47048 -1.33946 19.806801
0.49376899 -1.3404599 19.801901
0.52033001 -1.34001 19.812201
0.54525697 -1.3402801 19.8148
0.57018602 -1.34057 19.817499
0.59345102 -1.34158 19.812599
0.62005699 -1.34114 19.822701
0.644436 -1.34241 19.8305
0.66819203 -1.3433 19.8286
0.69283199 -1.3441401 19.834
0.718027 -1.34558 19.8501
0.74406099 -1.34574 19.860399
0.767079 -1.34832 19.8685
0.79067898 -1.34973 19.869801
0.81682199 -1.35 19.8815
0.842085 -1.35079 19.8906
0.86867398 -1.3513 19.9077
0.89343899 -1.354 19.930099
0.91941202 -1.35507 19.946699
0.945198 -1.35618 19.9618
0.970155 -1.35938 19.989
0.99635202 -1.36115 20.0124
1.02198 -1.3642499 20.042801
1.04851 -1.36621 20.069599
1.0750999 -1.3681901 20.0963
1.10093 -1.37132 20.126699
1.1274199 -1.37313 20.150299
1.15425 -1.37607 20.185499
1.18129 -1.37892 20.220699
1.20723 -1.3824199 20.252701
1.23491 -1.38691 20.304701
1.2626899 -1.39087 20.3522
1.29284 -1.39718 20.4345
1.32653 -1.40326 20.5385
1.48032 -1.51271 22.100599
1.5098 -1.51756 22.148899
1.54079 -1.51815 22.174
1.56813 -1.52464 22.2187
1.60232 -1.52674 22.2756
1.63541 -1.53146 22.3438
1.66804 -1.53599 22.406401
1.69921 -1.54146 22.4652
1.73259 -1.54734 22.5404
1.77019 -1.55471 22.6523
1.80373 -1.56266 22.7407
1.84173 -1.56979 22.85
1.88544 -1.57976 23.013599
1.9328099 -1.60043 23.2721
1.97701 -1.61133 23.439301
2.03001 -1.62898 23.7043
2.0803001 -1.65385 23.997801
2.1352701 -1.66444 24.2188
2.16676 -1.66826 24.249701
2.1984 -1.66996 24.2668
2.2299099 -1.66983 24.2708
2.2588899 -1.67031 24.2638
2.2934699 -1.67041 24.287201
2.3224399 -1.67089 24.2801
2.3562601 -1.67142 24.301399
2.3868799 -1.67399 24.316999
2.4201701 -1.67706 24.3507
2.4537101 -1.67782 24.370899
2.4860301 -1.67923 24.388
2.5178499 -1.68191 24.4098
2.5557101 -1.68381 24.4599
2.58408 -1.68571 24.4573
2.6164401 -1.68645 24.4694
2.6529601 -1.6866601 24.5007
2.6856899 -1.68971 24.528099
2.7191601 -1.6931 24.5611
2.75315 -1.69721 24.6007
2.79232 -1.69903 24.653601
2.83356 -1.70464 24.7386
2.8725801 -1.7122999 24.822701
-2.32219 -1.39135 21.1409
-2.2852499 -1.38427 21.0765
-2.26018 -1.38596 21.0436
-2.2230799 -1.37834 20.9876
-2.1893001 -1.37313 20.941
-2.1619301 -1.37265 20.912701
-2.13362 -1.37156 20.872101
-2.1032801 -1.36861 20.841999
-2.07199 -1.36479 20.813601
-2.0408299 -1.36112 20.778299
-2.0137501 -1.3604 20.7642
-1.98386 -1.35771 20.7229
-1.95777 -1.35782 20.6984
-1.93279 -1.35858 20.694901
-1.90256 -1.3552001 20.679399
-1.87368 -1.3528301 20.669901
-1.84746 -1.35259 20.660299
-1.8225501 -1.3533601 20.656799
-1.7977099 -1.3541501 20.6584
-1.77184 -1.35413 20.6577
-1.74694 -1.3549 20.653999
-1.71996 -1.35401 20.6404
-1.6950999 -1.35479 20.6367
-1.66967 -1.35511 20.6378
-1.64415 -1.35537 20.648701
-1.61357 -1.35148 20.6299
-1.58777 -1.3515 20.634199
-1.56294 -1.3523 20.630501
-1.53812 -1.3530999 20.6266
-1.5135 -1.35411 20.631599
-1.4858299 -1.35261 20.6318
-1.45935 -1.35208 20.6327
-1.43318 -1.3518699 20.639601
-1.40808 -1.3523901 20.6297
-1.3832999 -1.35321 20.625799
-1.35751 -1.35323 20.624701
-1.33163 -1.35331 20.634001
-1.3057899 -1.35337 20.6381
-1.27968 -1.35313 20.636101
-1.25517 -1.35427 20.638
-1.23042 -1.3551199 20.6339
-1.20456 -1.35519 20.637899
-1.1787 -1.35526 20.641899
-1.15283 -1.35534 20.6458
-1.12696 -1.35543 20.6497
-1.10243 -1.35659 20.6514
-1.07927 -1.35904 20.6597
-1.0545501 -1.36075 20.6905
-1.03016 -1.3622299 20.698099
-1.00539 -1.3631001 20.693701
-0.97869098 -1.36283 20.706699
-0.95232302 -1.36288 20.720501
-0.92648798 -1.36296 20.719
-0.90218699 -1.3647701 20.7325
-0.87714398 -1.36651 20.7631
-0.853921 -1.36932 20.7771
-0.82802898 -1.3694201 20.775499
-0.80074 -1.36927 20.8015
-0.77609497 -1.37064 20.805799
-0.75344801 -1.37481 20.840799
-0.72722799 -1.37529 20.8556
-0.70126802 -1.37541 20.8538
-0.676687 -1.37727 20.867001
-0.65024799 -1.37779 20.885201
-0.26809901 -1.32608 20.166901
-0.22521099 -1.33039 20.1264
-0.19604801 -1.32508 20.091299
-0.169664 -1.32248 20.0632
-0.143354 -1.31988 20.0352
-0.118445 -1.31863 20.010599
-0.093663901 -1.31709 19.9806
-0.071449399 -1.3188 19.968399
-0.047537901 -1.31864 19.9499
-0.021957001 -1.3166 19.9251
0.00284005 -1.31595 19.9118
0.0276033 -1.31529 19.898399
0.053519599 -1.31303 19.876301
0.078200802 -1.31238 19.863001
0.101683 -1.31335 19.8584
0.126307 -1.31271 19.8451
0.15203901 -1.31046 19.823099
0.175598 -1.31095 19.813499
0.20011 -1.3111 19.8106
0.224894 -1.31104 19.808201
0.248266 -1.31203 19.803499
0.273716 -1.3118 19.8062
0.29951099 -1.31148 19.811501
0.32409799 -1.31115 19.8036
