# .PCD v0.7 - Point Cloud Data file format
VERSION 0.7
FIELDS x y z
SIZE 4 4 4
TYPE F F F
COUNT 1 1 1
WIDTH 1575
HEIGHT 1
VIEWPOINT 0 0 0 1 0 0 0
POINTS 1575
DATA ascii
-0.89095902 -0.77494597 20.9412
-0.865987 -0.776003 20.936701
-0.84102601 -0.77706301 20.932199
-0.81483603 -0.77705801 20.923401
-0.78949302 -0.777749 20.9132
-0.76160502 -0.77625299 20.9028
-0.73466998 -0.77566397 20.9083
-0.70612401 -0.77366 20.9083
-0.68124402 -0.77473998 20.9037
-0.65637499 -0.77582401 20.899
-0.63151699 -0.77691299 20.8944
-0.605479 -0.77751899 20.931999
-0.58038002 -0.77872801 20.9498
-0.55548501 -0.77983201 20.945
-0.52946699 -0.78021997 20.9564
-0.502644 -0.77998501 20.9706
-0.47663999 -0.780204 20.968901
-0.45175499 -0.78132302 20.964001
-0.42576501 -0.78154999 20.962299
-0.39762101 -0.78043902 20.985201
-0.37162 -0.78067398 20.9835
-0.34675199 -0.78180802 20.9785
-0.32076499 -0.78205103 20.976601
-0.29421499 -0.78207701 20.9855
-0.26765001 -0.78210598 20.9944
-0.24166401 -0.78236002 20.9925
-0.217939 -0.784594 20.991501
-0.190589 -0.78505898 21.036699
-0.166729 -0.787673 21.050301
-0.13933299 -0.78705198 21.057199
-0.112128 -0.78707498 21.0784
-0.0881413 -0.79066497 21.121
-0.061544798 -0.79130298 21.1413
-0.035785802 -0.79418701 21.2024
-0.00764417 -0.79664201 21.3041
0.0162111 -0.81234503 21.648899
0.0703547 -0.84595698 22.475
0.098600097 -0.84680098 22.495501
0.1247 -0.850097 22.5284
0.15323 -0.85091102 22.5515
0.183061 -0.85014099 22.5639
0.211667 -0.85050702 22.5767
0.238584 -0.85338801 22.6108
0.26568499 -0.85538697 22.628201
0.294949 -0.85536402 22.6425
0.32565701 -0.85389 22.6527
0.35321301 -0.855699 22.6721
0.38092899 -0.85816997 22.7059
0.40928799 -0.859263 22.7232
0.43872899 -0.859267 22.7374
0.46895301 -0.85873502 22.753799
0.49641201 -0.86169499 22.7878
0.52387297 -0.86375701 22.805
0.55346799 -0.86378402 22.819201
0.58559602 -0.86234701 22.845699
0.61293799 -0.866983 22.900999
0.64094597 -0.86743498 22.8969
0.67070502 -0.86748397 22.9109
0.700203 -0.86866498 22.9384
0.72759801 -0.87263501 22.978701
0.76066899 -0.87029803 22.998899
0.78980601 -0.87167501 23.0217
0.81799501 -0.87550497 23.0667
0.848032 -0.87558901 23.0807
0.87726098 -0.87794602 23.115801
0.90855497 -0.878941 23.1563
0.938214 -0.87998497 23.1765
0.96907502 -0.882388 23.228399
0.99885798 -0.88344699 23.248699
1.02902 -0.88661498 23.299801
1.0621901 -0.88597202 23.3351
1.09196 -0.88743597 23.357901
1.12185 -0.891186 23.409401
1.15525 -0.89327002 23.477501
1.18532 -0.89455402 23.4984
1.2201101 -0.89827198 23.5975
1.25477 -0.90047997 23.674999
1.28914 -0.90316701 23.752899
1.3207999 -0.904603 23.7871
1.36 -0.90520602 23.8867
1.40158 -0.910752 24.0625
1.4263999 -0.91882002 24.096701
1.46409 -0.91696 24.147699
1.4903001 -0.921992 24.1612
1.52017 -0.92368901 24.1735
1.5513099 -0.92348897 24.177799
1.57891 -0.925089 24.1677
1.61334 -0.921422 24.166599
1.64604 -0.919074 24.1633
1.6742001 -0.91895401 24.1416
1.70169 -0.92056298 24.1315
1.72917 -0.922176 24.1213
1.76105 -0.919209 24.105301
1.7905999 -0.91812003 24.0877
1.81979 -0.918459 24.0809
1.85077 -0.91751999 24.0774
1.8781 -0.91914499 24.0672
1.9054101 -0.92077202 24.056999
1.93318 -0.92068201 24.035299
1.96532 -0.91722 24.018999
1.9971 -0.916426 24.0238
2.0262799 -0.91621602 24.013
2.0534401 -0.91785502 24.0028
2.08058 -0.91949701 23.9925
2.1093099 -0.92016798 23.986401
2.14118 -0.91950703 23.993
2.1725299 -0.91852802 23.992901
2.20034 -0.91675103 23.959801
2.22735 -0.91840601 23.949499
2.25899 -0.91780603 23.954901
2.2901399 -0.91766798 23.960501
2.3183501 -0.91873002 23.9543
2.3476501 -0.91818899 23.9433
2.3793199 -0.91854 23.9562
2.41046 -0.918329 23.9608
2.4381499 -0.920232 23.9576
2.4697001 -0.92082298 23.971001
2.5011899 -0.920443 23.9764
2.53196 -0.92087901 23.982901
2.5626299 -0.92370403 24.006399
2.5941899 -0.92389297 24.016001
2.6256299 -0.92592299 24.038099
2.65729 -0.92623699 24.0488
2.6897199 -0.92586702 24.059299
2.7215099 -0.926745 24.074499
2.7544899 -0.92686701 24.0917
2.78722 -0.92883098 24.1199
2.81919 -0.93134302 24.1467
2.8517599 -0.930996 24.157101
2.8843701 -0.930655 24.1675
2.9163599 -0.931566 24.1826
2.94947 -0.93519098 24.222401
2.9839001 -0.93563098 24.248301
3.01633 -0.93663102 24.2656
3.0520401 -0.94050598 24.320999
3.0938599 -0.93883002 24.3752
3.1298699 -0.94273502 24.430901
3.16258 -0.94376498 24.448099
3.1963401 -0.947128 24.486
3.2416 -0.94824702 24.5749
-2.7004399 -0.812078 22.379101
-2.6665101 -0.80707502 22.379601
-2.6401 -0.80813599 22.382401
-2.6096799 -0.806436 22.3762
-2.58412 -0.80894899 22.366199
-2.51982 -0.80353999 22.3381
-2.4533701 -0.79887402 22.262199
-2.36588 -0.80006403 22.172701
-2.3022299 -0.795892 22.1187
-2.27493 -0.79669201 22.1075
-2.2335501 -0.78689599 22.0748
-2.21225 -0.79270297 22.060699
-2.18507 -0.79351199 22.0495
-2.1544299 -0.79168302 22.0329
-2.13024 -0.79499501 22.0201
-2.1004801 -0.79338598 22.013901
-2.06971 -0.79148799 21.993999
-2.0418501 -0.79124802 21.9921
-2.0153401 -0.79222399 21.9876
-1.98884 -0.79320598 21.983101
-1.95834 -0.79054803 21.9862
-1.9287 -0.78896701 21.9799
-1.90223 -0.78995901 21.9753
-1.8717 -0.78809202 21.9555
-1.8452801 -0.78908998 21.950899
-1.81752 -0.78888297 21.948799
-1.79111 -0.78988898 21.944201
-1.7638 -0.789837 21.948799
-1.73647 -0.78978801 21.9534
-1.71008 -0.79080701 21.9487
-1.68235 -0.79061902 21.946501
-1.65598 -0.79164702 21.9417
-1.62845 -0.79154098 21.942801
-1.59548 -0.78659898 21.9541
-1.5691299 -0.787637 21.949301
-1.54697 -0.79169703 21.966299
-1.19037 -0.75575799 21.123501
-1.16462 -0.75651598 21.1066
-1.13255 -0.75205398 21.074301
-1.1071301 -0.75295299 21.0637
-1.08016 -0.75255501 21.0492
-1.05145 -0.75071901 21.0247
-1.02457 -0.75032401 21.0103
-0.99948698 -0.75137299 21.005899
-0.97267097 -0.75098801 20.991501
-0.94416898 -0.74916899 20.967199
-0.917445 -0.748788 20.952801
-0.89245498 -0.74984902 20.948299
-0.86747497 -0.75091302 20.943899
-0.84250599 -0.75198102 20.939301
-0.81589001 -0.751616 20.9249
-0.78758597 -0.74977702 20.9098
-0.75739801 -0.74639702 20.9119
-0.73232198 -0.74735397 20.912701
-0.706352 -0.74753898 20.911301
-0.68146998 -0.74862599 20.9067
-0.6566 -0.749717 20.9021
-0.62947899 -0.74900597 20.909401
-0.60358202 -0.749475 20.9277
-0.57835001 -0.75037903 20.9319
-0.55501097 -0.75292999 20.936899
-0.52950102 -0.75392699 20.962299
-0.50403899 -0.75486898 20.978001
-0.478028 -0.75509101 20.976299
-0.453134 -0.75621802 20.971399
-0.42551199 -0.75531203 20.983601
-0.39898899 -0.75530899 20.992599
-0.37298101 -0.75554699 20.9909
-0.348104 -0.75668901 20.985901
-0.32211 -0.756935 20.9841
-0.295147 -0.75672197 20.9981
-0.267847 -0.756069 21.0051
-0.242989 -0.757227 21
-0.21567 -0.756585 21.007
-0.19064 -0.75862497 21.0385
-0.166933 -0.76140302 21.053801
-0.140192 -0.76162201 21.069901
-0.112329 -0.76076901 21.0819
-0.089047097 -0.76503599 21.128
-0.061542399 -0.76537102 21.163401
-0.035898998 -0.76791799 21.213499
-0.0089873401 -0.77260798 21.350901
0.016287399 -0.78513002 21.6535
0.068983003 -0.81916201 22.4842
0.098465003 -0.81940502 22.517401
0.12585901 -0.82113302 22.5403
0.15241501 -0.82380599 22.5667
0.18298499 -0.82229799 22.577
0.21143299 -0.82314599 22.597601
0.239024 -0.824862 22.619699
0.265973 -0.82748902 22.6479
0.29525399 -0.82744998 22.662201
0.32598901 -0.82596397 22.672501
0.35438201 -0.82720703 22.695499
0.38071099 -0.83048803 22.7216
0.40921199 -0.831747 22.744499
0.44007799 -0.83027703 22.7547
0.468925 -0.83118403 22.775101
0.49580899 -0.83456498 22.807899
0.52498299 -0.83544099 22.830999
0.55529398 -0.834719 22.8431
0.58566397 -0.83469701 22.8673
0.61274397 -0.83854699 22.9065
0.64151901 -0.83924299 22.917299
0.67264301 -0.83831698 22.9352
0.70011503 -0.84153497 22.9664
0.72823399 -0.84435397 22.999201
0.76019502 -0.84270602 23.0151
0.78883201 -0.84526801 23.049
0.817554 -0.84784198 23.083
0.850923 -0.84575498 23.1084
0.87816501 -0.85033101 23.150101
0.91006899 -0.85023999 23.183201
0.94131398 -0.849774 23.2022
0.96798199 -0.85477 23.2391
1.00192 -0.85342002 23.276899
1.0307699 -0.858648 23.340099
1.06189 -0.85801297 23.351999
1.09506 -0.85999 23.42
1.12359 -0.86220598 23.437
1.15952 -0.86371398 23.5266
1.18959 -0.86902499 23.596399
1.22367 -0.871593 23.674101
1.25228 -0.87374002 23.6868
1.29107 -0.87419701 23.785999
1.32418 -0.87820101 23.865
1.46954 -0.89083898 24.2505
1.49718 -0.89081901 24.221901
1.52566 -0.89233899 24.2185
1.55567 -0.89287001 24.219299
1.58823 -0.89083099 24.216999
1.61395 -0.89330298 24.198299
1.67576 -0.88924599 24.1646
1.70328 -0.89086998 24.154499
1.73077 -0.89249802 24.1443
1.75825 -0.89412802 24.1341
1.79413 -0.88911301 24.1332
1.82328 -0.88753998 24.107201
1.8500201 -0.888964 24.0896
1.87736 -0.89060301 24.079399
1.90468 -0.89224499 24.069201
1.93681 -0.88903999 24.054501
1.9692 -0.88678098 24.0508
1.99909 -0.88629699 24.0429
2.02561 -0.88773501 24.025299
2.0527899 -0.88938802 24.014999
2.0815499 -0.89006501 24.0089
2.11218 -0.89057702 24.0158
2.1431401 -0.88972998 24.013599
2.1719401 -0.89007503 24.005199
2.19976 -0.88833499 23.972099
2.23088 -0.88834 23.9785
2.2631099 -0.88711703 23.983
2.29158 -0.88741201 23.9723
2.3202 -0.888116 23.966
2.3508 -0.88865799 23.972799
2.3814001 -0.88920301 23.9795
2.4099801 -0.889916 23.9732
2.44115 -0.88970703 23.9778
2.4728899 -0.89005601 23.990601
2.50144 -0.89077997 23.9842
2.5350101 -0.890701 24.0058
2.56587 -0.89168 24.016899
2.59706 -0.89173597 24.0229
2.6269901 -0.89445698 24.040199
2.65891 -0.89589298 24.061001
2.6905501 -0.89714497 24.078199
2.7235501 -0.89600003 24.0867
2.7556601 -0.89693201 24.104099
2.7883501 -0.89800203 24.1259
2.81971 -0.90118301 24.153601
2.85151 -0.90237403 24.17
2.88535 -0.90181702 24.186701
2.91851 -0.90069801 24.195
2.9505 -0.90366501 24.223801
2.9863701 -0.90544701 24.2677
3.01882 -0.90642601 24.285
3.05339 -0.90858197 24.322399
3.0922301 -0.90962201 24.377399
3.12887 -0.910918 24.420099
3.1624899 -0.91482198 24.461599
3.1989 -0.91388297 24.4874
3.2399001 -0.91706198 24.565599
-2.6477301 -0.78437501 22.413799
-2.6145401 -0.78116697 22.3958
-2.58742 -0.78209502 22.3915
-2.5576401 -0.78150702 22.375601
-2.5298901 -0.78230202 22.3641
-2.49821 -0.78034699 22.3437
-2.46789 -0.77867699 22.3374
-2.3248 -0.78527701 22.1513
-2.2502301 -0.77118301 22.111
-2.1844299 -0.76409 22.075399
-2.1620901 -0.768493 22.0735
-2.13304 -0.76796901 22.0578
-2.1024401 -0.76528102 22.061001
-2.0726399 -0.763686 22.054701
-2.0418301 -0.76181799 22.0347
-2.01478 -0.76266402 22.023399
-1.98825 -0.76365203 22.018999
-1.96172 -0.76464498 22.0144
-1.9347301 -0.76550299 22.003099
-1.9082299 -0.766505 21.998501
-1.87766 -0.76465702 21.9786
-1.84628 -0.76094103 21.9909
-1.8182499 -0.76066601 21.985399
-1.7906801 -0.760535 21.9867
-1.76381 -0.761415 21.9753
-1.7374001 -0.76243699 21.9706
-1.71099 -0.76346499 21.9659
-1.68364 -0.76342201 21.9704
-1.65724 -0.76445699 21.9657
-1.62988 -0.764422 21.9702
-1.60116 -0.76317501 21.9772
-1.57478 -0.76422298 21.972401
-1.54877 -0.76541698 21.9743
-1.2193201 -0.73044699 21.1854
-1.19247 -0.73070198 21.143299
-1.1662 -0.73122102 21.1138
-1.13388 -0.72666198 21.075199
-1.10869 -0.72770602 21.0709
-1.0799201 -0.72589701 21.046301
-1.05121 -0.72408801 21.0219
-1.0261101 -0.72513902 21.0175
-1.0010099 -0.72619498 21.0131
-0.97418898 -0.72582799 20.998699
-0.94567698 -0.72403598 20.9743
-0.91894501 -0.72367299 20.9599
-0.89394701 -0.72474003 20.9555
-0.86895901 -0.725811 20.951
-0.84273601 -0.725824 20.942301
-0.81662101 -0.72591799 20.937201
-0.78553599 -0.72174197 20.9205
-0.75885302 -0.721331 20.9191
-0.732692 -0.72138602 20.9231
-0.70779198 -0.72247601 20.918501
-0.68290198 -0.72356999 20.9139
-0.65693599 -0.72376603 20.912399
-0.63056701 -0.72371203 20.9217
-0.60418302 -0.72366202 20.930901
-0.57940298 -0.72493303 20.9335
-0.55453199 -0.72604799 20.928801
-0.52836698 -0.72649598 20.958
-0.503151 -0.72776997 20.984301
-0.47824299 -0.72890002 20.9795
-0.45339701 -0.73019499 20.981899
-0.42644799 -0.729711 20.9856
-0.400354 -0.73016697 21
-0.374338 -0.73040801 20.998301
-0.349453 -0.73155802 20.993299
-0.323452 -0.73180699 20.991501
-0.29518899 -0.73066002 21.0144
-0.26917699 -0.73091698 21.0126
-0.244311 -0.73208201 21.0075
-0.216562 -0.731197 21.0196
-0.189904 -0.73138702 21.035801
-0.166201 -0.73414898 21.051001
-0.140788 -0.73578399 21.0772
-0.113622 -0.73553401 21.0895
-0.088181399 -0.73799503 21.1395
-0.060178701 -0.738244 21.186399
-0.036014799 -0.742136 21.2395
0.015537 -0.758358 21.650299
0.069644399 -0.79116499 22.5093
0.099505402 -0.79051399 22.528601
0.124589 -0.79437202 22.554199
0.15261599 -0.79595399 22.586201
0.18321399 -0.794433 22.5965
0.211394 -0.79561698 22.6196
0.23946901 -0.796314 22.628599
0.26595601 -0.79960299 22.663
0.29651299 -0.798527 22.6793
0.325849 -0.79847699 22.6936
0.354148 -0.79952002 22.711
0.38081801 -0.80282801 22.7439
0.409605 -0.80369997 22.7645
0.44049799 -0.80221897 22.7747
0.46910501 -0.80346501 22.797701
0.49565801 -0.80675602 22.8237
0.52437401 -0.80801898 22.846701
0.55539697 -0.80655301 22.8568
0.58444703 -0.80746502 22.8773
0.61271399 -0.81020403 22.9161
0.641635 -0.81149602 22.938999
0.67399299 -0.80958098 22.958599
0.69925302 -0.814897 22.9923
0.72978097 -0.81504703 23.017099
0.76154703 -0.81413102 23.041599
0.79061198 -0.81638002 23.076799
0.81896698 -0.81919301 23.109699
0.85127199 -0.81823403 23.1378
0.87808198 -0.82333601 23.181801
0.908957 -0.82266098 23.1938
0.93976301 -0.82362002 23.2274
0.968467 -0.827115 23.268801
1.00245 -0.82572103 23.306801
1.0311199 -0.82992297 23.354799
1.0616 -0.83002102 23.368799
1.09245 -0.83329898 23.4277
1.12525 -0.83393401 23.4736
1.15618 -0.837165 23.5296
1.1909 -0.84065002 23.629101
1.22551 -0.84267402 23.7069
1.26355 -0.84383303 23.809099
1.56634 -0.85923702 24.2901
1.58887 -0.86419201 24.266001
1.6172 -0.86412102 24.243999
1.6502399 -0.86186397 24.2439
1.68391 -0.857916 24.232
1.71029 -0.85914999 24.2068
1.7372299 -0.86058903 24.1891
1.76474 -0.86223501 24.1789
1.7916 -0.86367899 24.1612
1.8207901 -0.86213201 24.135201
1.85173 -0.85930097 24.1126
1.8791 -0.86095399 24.1024
1.90644 -0.862611 24.092199
1.9367501 -0.86149198 24.0812
1.97001 -0.85759801 24.069401
1.99773 -0.85756701 24.047701
2.02495 -0.859231 24.0375
2.05375 -0.859914 24.031401
2.0843999 -0.86041498 24.038401
2.1150601 -0.860919 24.045401
2.1442299 -0.85992002 24.0278
2.17135 -0.86159998 24.017401
2.20327 -0.85821003 24.001101
2.23508 -0.85793102 24.0103
2.26331 -0.858513 23.999599
2.29105 -0.85897303 23.9846
2.3222301 -0.858742 23.9893
2.35394 -0.85905898 24.0023
2.38257 -0.85977799 23.996
2.41117 -0.860502 23.989599
2.44292 -0.86083299 24.002501
2.4741099 -0.86062098 24.007099
2.5026901 -0.86135501 24.0007
2.5344801 -0.8617 24.0135
2.56569 -0.86150199 24.018101
2.59641 -0.86262798 24.0291
2.6285901 -0.86302298 24.0443
2.6580999 -0.86559802 24.0576
2.69068 -0.86727703 24.084299
2.7232299 -0.86744201 24.0994
2.7552099 -0.867823 24.112
2.78743 -0.86786997 24.123699
2.82336 -0.86877197 24.164801
2.8528299 -0.87063801 24.1712
2.88463 -0.87266999 24.193199
2.9182899 -0.87202102 24.208
2.9504499 -0.87243301 24.220501
2.98543 -0.87384897 24.2568
3.0186501 -0.87765199 24.2981
3.0547299 -0.87665701 24.323799
3.0906 -0.88041699 24.379499
3.1268301 -0.87943202 24.405199
3.16259 -0.88108402 24.445
3.19572 -0.88421798 24.478399
3.2379799 -0.883986 24.542601
3.2727799 -0.882465 24.5546
-2.6791899 -0.75701499 22.447399
-2.652 -0.757945 22.4431
-2.61572 -0.75397497 22.3972
-2.5885999 -0.75490999 22.3929
-2.5604401 -0.75485498 22.3906
-2.53334 -0.755799 22.386299
-2.5055799 -0.75661498 22.3748
-2.3134501 -0.74448001 22.217699
-2.24982 -0.74045199 22.163401
-2.22422 -0.74168098 22.172899
-2.1326399 -0.73827499 22.0938
-2.1059999 -0.73925799 22.089399
-2.0753701 -0.73747897 22.0728
-2.0511899 -0.74084198 22.059799
-2.01722 -0.73642302 22.038099
-1.99067 -0.73741901 22.0336
-1.96278 -0.73719901 22.031601
-1.93625 -0.73820299 22.0271
-1.90973 -0.73921299 22.022499
-1.8817 -0.73861998 22.026899
-1.85268 -0.73757398 22.020901
-1.82304 -0.73602301 22.0145
-1.79656 -0.73704702 22.009899
-1.7661 -0.73523998 21.989901
-1.73966 -0.73627102 21.9853
-1.71156 -0.73551399 21.992701
-1.68357 -0.73495102 21.997
-1.65719 -0.735856 21.998199
-1.62977 -0.73595399 21.996799
-1.60335 -0.73700702 21.992001
-1.57594 -0.73711401 21.990499
-1.55093 -0.73925799 21.988899
-1.18813 -0.700405 21.147499
-1.16802 -0.706038 21.127199
-1.13568 -0.70151901 21.0886
-1.11002 -0.70232397 21.0718
-1.07967 -0.699247 21.0434
-1.05275 -0.69888401 21.028999
-1.02764 -0.69994301 21.0247
-1.00078 -0.69959003 21.010201
-0.97222197 -0.697824 20.985901
-0.94545698 -0.69747502 20.9715
-0.92044002 -0.69854498 20.9671
-0.89543498 -0.69962001 20.962601
-0.87043899 -0.70069802 20.958099
-0.84305102 -0.69973701 20.9489
-0.81312501 -0.69659197 20.9275
-0.78522497 -0.69516402 20.9307
-0.760131 -0.69611901 20.931601
-0.734137 -0.69630402 20.930201
-0.70922899 -0.697402 20.925699
-0.684331 -0.69850302 20.921101
-0.65835702 -0.69870198 20.9196
-0.63165301 -0.698394 20.933901
-0.60450101 -0.69766903 20.941299
-0.57961702 -0.69878697 20.9366
-0.55281103 -0.69844401 20.949301
-0.52687597 -0.69891798 20.966
-0.502693 -0.70084798 20.9762
-0.479294 -0.70340502 20.9811
-0.45358199 -0.70392102 20.9814
-0.42618901 -0.70316499 20.992201
-0.39944401 -0.70304 21.0065
-0.37454501 -0.704193 21.001499
-0.34965801 -0.70534998 20.9965
-0.32269701 -0.705033 21.0075
-0.296523 -0.70549202 21.0219
-0.270504 -0.705751 21.02
-0.244489 -0.706016 21.018101
-0.21745101 -0.70578402 21.032101
-0.190101 -0.70512903 21.0392
-0.166337 -0.70738298 21.038099
-0.141581 -0.71010798 21.0846
-0.113752 -0.70937598 21.100401
-0.0892912 -0.713094 21.165701
-0.061941601 -0.71294498 21.1826
-0.035676401 -0.71542698 21.2509
0.0148805 -0.73173797 21.6535
0.036356799 -0.76654601 22.4907
0.070303403 -0.763111 22.5343
0.100068 -0.76245302 22.5509
0.12599 -0.76670998 22.6063
0.153788 -0.76709902 22.603001
0.182962 -0.76700598 22.6175
0.21248101 -0.76659697 22.631001
0.239805 -0.76875502 22.6583
0.26734799 -0.77108097 22.6924
0.296828 -0.77052999 22.698999
0.32618099 -0.77046299 22.7134
0.35344401 -0.77242798 22.731001
0.380723 -0.77524501 22.7652
0.410941 -0.774643 22.7817
0.44045201 -0.77460003 22.796
0.46893799 -0.77565199 22.8134
0.49586701 -0.77896303 22.846399
0.52485698 -0.77983898 22.866899
0.55654502 -0.77812201 22.8829
0.58584601 -0.77896202 22.906
0.61302501 -0.78231001 22.938999
0.64220798 -0.78321397 22.9594
0.67414302 -0.78218502 22.987499
0.70151699 -0.78556699 23.0205
0.73110998 -0.78644198 23.0436
0.76175302 -0.78572702 23.0557
0.79042101 -0.78962398 23.1113
0.82058197 -0.78974098 23.1278
0.85014099 -0.79069602 23.148199
0.88024002 -0.79381001 23.206699
0.91047001 -0.79386002 23.2208
0.940418 -0.79682302 23.2721
0.973436 -0.79603499 23.307699
1.0031101 -0.79739898 23.330601
1.03277 -0.80094302 23.382299
1.06515 -0.80081302 23.4158
1.09589 -0.80395198 23.4718
1.13085 -0.806189 23.563499
1.16421 -0.80957502 23.649
1.1967601 -0.81275499 23.7201
1.23388 -0.81433398 23.820299
1.2631201 -0.816652 23.8405
1.30632 -0.82444298 24.076799
1.52978 -0.83890599 24.346001
1.5974801 -0.830966 24.3221
1.62348 -0.83203202 24.289101
1.65175 -0.83388001 24.286501
1.67882 -0.83534098 24.2687
1.70464 -0.83640802 24.2358
1.73703 -0.83208001 24.2089
1.76638 -0.832443 24.202
1.7939 -0.83410698 24.191799
1.82985 -0.82909203 24.1908
1.85903 -0.82758498 24.164801
1.8858 -0.82905799 24.1471
1.91318 -0.83073002 24.136801
1.93854 -0.831815 24.1042
1.9693201 -0.829032 24.081699
1.99958 -0.82793403 24.0707
2.02935 -0.82852101 24.071199
2.06004 -0.82901102 24.0783
2.08887 -0.82970601 24.0721
2.11606 -0.83139497 24.0618
2.14363 -0.83140802 24.040001
2.1751499 -0.82995301 24.036699
2.2074399 -0.82773799 24.0329
2.2360799 -0.828785 24.028999
2.26349 -0.828807 24.0072
2.29216 -0.82952499 24.000999
2.3264401 -0.828866 24.025
2.3550999 -0.82959098 24.018801
2.3820801 -0.83130503 24.008301
2.41329 -0.83108097 24.013
2.44506 -0.83139801 24.0259
2.47367 -0.83213699 24.019501
2.50489 -0.83192599 24.024099
2.5367 -0.83225602 24.037001
2.56529 -0.83300602 24.0305
2.5976701 -0.83258498 24.0413
2.62941 -0.833395 24.056601
2.66028 -0.83382899 24.063101
2.69345 -0.83494002 24.0898
2.7254901 -0.83738399 24.118299
2.7576399 -0.83827603 24.135799
2.79073 -0.83712 24.1443
2.8227701 -0.837497 24.1569
2.8548901 -0.83820701 24.1721
2.88884 -0.83982998 24.205099
2.9208901 -0.84237099 24.232
2.9530799 -0.84276903 24.2446
2.9890399 -0.84173298 24.2703
3.02071 -0.84503901 24.299
3.0531001 -0.84751302 24.3258
3.0931399 -0.84731197 24.380699
3.12691 -0.84964299 24.4139
3.1592 -0.85094702 24.431
3.1970899 -0.85210699 24.4799
3.2364399 -0.853055 24.535299
3.26928 -0.85559398 24.5623
-2.5952201 -0.72809601 22.459801
-2.5620201 -0.72493702 22.441799
-2.5348699 -0.72588801 22.437401
-2.50441 -0.72522402 22.414301
-2.4802599 -0.72874302 22.408199
-2.44889 -0.72690499 22.391199
-2.4133501 -0.722269 22.361799
-2.3955801 -0.73294902 22.322399
-2.3361001 -0.73376298 22.250299
-2.2026701 -0.718705 22.1782
-2.10956 -0.71317202 22.117901
-2.08184 -0.71392399 22.0996
-2.0538599 -0.71369499 22.097601
-2.0232201 -0.71100998 22.1008
-1.99341 -0.70944101 22.0944
-1.96263 -0.70763099 22.0744
-1.93606 -0.70864302 22.069901
-1.9090199 -0.70953602 22.0585
-1.88247 -0.71055698 22.053801
-1.85594 -0.71158201 22.0492
-1.8289599 -0.71248901 22.037701
-1.80132 -0.712358 22.039
-1.76827 -0.707331 22.050501
-1.74177 -0.70837098 22.045799
-1.71131 -0.70659602 22.025801
-1.68486 -0.70764297 22.021
-1.65841 -0.70869398 22.0163
-1.6305701 -0.70867199 22.008101
-1.60418 -0.70958698 22.009199
-1.57665 -0.70929199 22.0193
-1.5499099 -0.70971203 22.0284
-1.18972 -0.67504799 21.154699
-1.1703399 -0.68106002 21.1532
-1.1372499 -0.67623401 21.0958
-1.10999 -0.67576897 21.0751
-1.08121 -0.67401397 21.0506
-1.05428 -0.67366898 21.0362
-1.02917 -0.67473501 21.031799
-1.0023 -0.67439902 21.0173
-0.97373003 -0.67266101 20.993
-0.94695598 -0.67232901 20.9786
-0.92193198 -0.673406 20.974199
-0.896918 -0.67448801 20.9697
-0.86969501 -0.673675 20.967899
-0.84091198 -0.67157102 20.948799
-0.81162101 -0.668975 20.9424
-0.78651398 -0.66992599 20.9433
-0.76050502 -0.67010999 20.9419
-0.735578 -0.671211 20.937401
-0.71066099 -0.67231601 20.9328
-0.68575603 -0.67342502 20.9282
-0.65861797 -0.67268401 20.9356
-0.63190198 -0.67235899 20.950001
-0.60590899 -0.67256802 20.9485
-0.58101702 -0.673693 20.9438
-0.55383903 -0.67297 20.9512
-0.52784801 -0.673392 20.9695
-0.502231 -0.67394501 20.968
-0.47734699 -0.67508698 20.9632
-0.452068 -0.67631501 20.9895
-0.42563701 -0.67642498 21.004
-0.400493 -0.677517 21.0082
-0.37559301 -0.67867702 21.003201
-0.349866 -0.67921102 21.003401
-0.32241401 -0.67845899 21.0142
-0.295591 -0.67833698 21.0284
-0.271828 -0.680574 21.027399
-0.245805 -0.68084198 21.0256
-0.217437 -0.67965502 21.0485
-0.191405 -0.67992997 21.0466
-0.16449501 -0.67997402 21.0653
-0.141133 -0.68382102 21.1099
-0.113668 -0.683173 21.116899
-0.089624502 -0.68638402 21.1544
-0.062565997 -0.68687201 21.1854
-0.036690399 -0.68963099 21.2544
-0.0113766 -0.70191002 21.599899
0.0140635 -0.70560497 21.667
0.037180599 -0.73830497 22.5152
0.070180297 -0.73526299 22.547199
0.099753901 -0.73505098 22.571699
0.124636 -0.739748 22.6157
0.154 -0.73916602 22.622499
0.183191 -0.73905498 22.636999
0.211005 -0.73945701 22.6336
0.240137 -0.74113101 22.688101
0.266036 -0.74402601 22.702
0.29609701 -0.743218 22.714399
0.326175 -0.742414 22.726801
0.353533 -0.74442202 22.747101
0.38172501 -0.74705303 22.7952
0.41134399 -0.74651301 22.801701
0.440873 -0.74645299 22.816099
0.46832201 -0.74843001 22.833599
0.49586701 -0.75124699 22.867901
0.526272 -0.75064802 22.884399
0.55595797 -0.75061101 22.898701
0.58463198 -0.75167102 22.916
0.61181998 -0.75498599 22.948999
0.64370298 -0.75391603 22.9771
0.67295599 -0.75480402 22.9977
0.700782 -0.75839198 23.041201
0.73062301 -0.75875598 23.0597
0.762519 -0.75786102 23.0868
0.791215 -0.76169902 23.1425
0.82200998 -0.76098198 23.1546
0.85185099 -0.76186401 23.177799
0.87984103 -0.765944 23.223101
0.912817 -0.76483703 23.2563
0.94203597 -0.76874602 23.3123
0.97309202 -0.76805502 23.324301
1.00411 -0.770015 23.3727
1.03246 -0.77288401 23.399099
1.0655299 -0.77488703 23.4702
1.09483 -0.776034 23.4827
1.12825 -0.78016597 23.5825
1.16062 -0.78381401 23.6609
1.19469 -0.78611302 23.739201
1.22322 -0.790133 23.774401
1.52704 -0.81454003 24.389799
1.56006 -0.812814 24.393801
1.62177 -0.81051201 24.371599
1.66169 -0.800942 24.358
1.6876301 -0.80205601 24.3249
1.71047 -0.80597103 24.292601
1.74718 -0.79924703 24.2799
1.77291 -0.80036497 24.247
1.80047 -0.80204499 24.2367
1.82736 -0.80353999 24.218901
1.85711 -0.80038399 24.1812
1.88507 -0.80039197 24.1593
1.91246 -0.80207902 24.149099
1.93917 -0.803581 24.1313
1.97366 -0.79822898 24.1154
2.0016501 -0.79903299 24.102699
2.03214 -0.798729 24.1008
2.0610099 -0.799429 24.0947
2.0882399 -0.80113 24.0844
2.1154399 -0.80283499 24.073999
2.1466 -0.80084503 24.0627
2.17746 -0.79997498 24.059
2.20842 -0.79854602 24.0516
2.2355199 -0.80026001 24.0413
2.26459 -0.79931599 24.0236
2.29634 -0.79959601 24.036699
2.32757 -0.79935402 24.0415
2.3545899 -0.80107999 24.031099
2.38325 -0.801817 24.024799
2.41503 -0.80211598 24.0378
2.44627 -0.80189002 24.0425
2.4732201 -0.80362898 24.0319
2.5044601 -0.80341297 24.0366
2.5362899 -0.803729 24.0494
2.5665801 -0.80349803 24.0471
2.5984399 -0.80382401 24.0599
2.62971 -0.80362397 24.064501
2.66098 -0.80343002 24.069
2.6926401 -0.80462402 24.0863
2.7260201 -0.80616403 24.117399
2.7581601 -0.80845797 24.1453
2.7904401 -0.80847502 24.157101
2.8225 -0.80883801 24.169701
2.8561201 -0.808146 24.184601
2.8875201 -0.80891001 24.1954
2.91974 -0.811822 24.226299
2.9528799 -0.81401497 24.2575
2.9874001 -0.81264901 24.2722
3.0195701 -0.81351 24.287399
3.0526199 -0.817478 24.3288
3.0933001 -0.816432 24.382299
3.12432 -0.81859702 24.3981
3.15853 -0.82066703 24.4321
3.1984601 -0.81999201 24.481501
3.2316699 -0.82305902 24.514999
3.27177 -0.82310897 24.568701
-2.60079 -0.70355397 22.475599
-2.5701599 -0.70216101 22.4634
-2.5360501 -0.69865602 22.438801
-2.5078499 -0.69861799 22.436501
-2.48071 -0.69958597 22.431999
-2.45293 -0.70044202 22.4205
-2.2155499 -0.67445898 22.260401
-2.2095799 -0.69509298 22.208599
-2.1447001 -0.68896103 22.173401
-2.08003 -0.68287098 22.1383
-2.05335 -0.68387699 22.133801
-2.0238199 -0.68276298 22.123699
-1.9995199 -0.68578798 22.1178
-1.97189 -0.686575 22.099501
-1.94528 -0.687599 22.0949
-1.9113899 -0.683236 22.073099
-1.88483 -0.68426502 22.068501
-1.85692 -0.68406802 22.066401
-1.8294801 -0.68399101 22.071199
-1.80203 -0.683918 22.075899
-1.77549 -0.684964 22.071199
-1.74676 -0.68454802 22.055401
-1.72025 -0.68560201 22.0506
-1.69063 -0.684084 22.044201
-1.65766 -0.67937499 22.0492
-1.6312 -0.68043798 22.044399
-1.6046 -0.68119299 22.046101
-1.57697 -0.68109602 22.047199
-1.55126 -0.68240601 22.055901
-1.19206 -0.650006 21.180799
-1.1615601 -0.64723098 21.143
-1.13928 -0.65115398 21.1154
-1.11312 -0.65178698 21.086
-1.08275 -0.64876997 21.0576
-1.05582 -0.64844197 21.0432
-1.03069 -0.64951497 21.038799
-1.00381 -0.64919698 21.024401
-0.97523397 -0.64748597 21
-0.94863403 -0.64727998 20.9918
-0.92359501 -0.64836502 20.9874
-0.89719898 -0.648278 20.985399
-0.87049299 -0.64797598 20.971001
-0.83803803 -0.64276397 20.953899
-0.81308001 -0.64385998 20.949499
-0.78689498 -0.64389497 20.9536
-0.761949 -0.64499903 20.948999
-0.73701501 -0.64610702 20.9445
-0.71209002 -0.647219 20.939899
-0.68609297 -0.64741802 20.938499
-0.659711 -0.64732897 20.9478
-0.633313 -0.64724398 20.957199
-0.60731298 -0.64745498 20.9557
-0.58241302 -0.64858699 20.951
-0.55522901 -0.64785498 20.958401
-0.52843398 -0.647533 20.9727
-0.50243503 -0.64775997 20.9711
-0.476439 -0.64799303 20.9695
-0.45039999 -0.64838898 20.9841
-0.42463699 -0.64901203 20.995701
-0.398922 -0.64953703 20.995899
-0.37404001 -0.65070301 20.990999
-0.348418 -0.65151501 21.003099
-0.32181299 -0.65168703 21.0261
-0.29663599 -0.65279299 21.0301
-0.271745 -0.65397698 21.025101
-0.245409 -0.65427798 21.0378
-0.21874601 -0.654441 21.056
-0.192706 -0.654719 21.0541
-0.16517501 -0.65415299 21.070499
-0.14108001 -0.65712601 21.1077
-0.114954 -0.657884 21.1245
-0.087891199 -0.65814501 21.151501
-0.063384101 -0.66125602 21.1982
-0.0360961 -0.662983 21.2764
-0.0137497 -0.67690098 21.6043
0.0144231 -0.67903799 21.700199
0.0341888 -0.712551 22.514601
0.070063397 -0.707389 22.5602
0.099627897 -0.707479 22.593599
0.124575 -0.71123898 22.614201
0.153194 -0.711923 22.6376
0.183121 -0.711079 22.6502
0.21292 -0.71086401 22.6747
0.239351 -0.71402198 22.7078
0.26600799 -0.71597999 22.7152
0.295367 -0.71587598 22.7297
0.324884 -0.71531302 22.736401
0.35382101 -0.71604598 22.759701
0.380449 -0.719877 22.804899
0.410678 -0.71907502 22.817301
0.44092399 -0.71827602 22.829599
0.470112 -0.71952498 22.863501
0.49700901 -0.722911 22.8981
0.52676499 -0.72238398 22.9046
0.55646998 -0.72232997 22.9189
0.58606702 -0.72369999 22.957001
0.61440402 -0.72605699 22.991301
0.64494801 -0.72529501 23.0035
0.67446202 -0.72610497 23.026699
0.701967 -0.73006099 23.072001
0.73263299 -0.72931302 23.0842
0.76229203 -0.73101902 23.1213
0.791444 -0.73315603 23.1567
0.82157701 -0.73315698 23.1709
0.881329 -0.73705101 23.2502
0.91233402 -0.73715901 23.275299
0.94426799 -0.73901498 23.3375
1.00402 -0.74335903 23.412399
1.03597 -0.74353498 23.446199
1.07087 -0.74429798 23.5233
1.11426 -0.73795402 23.6026
1.13103 -0.75360399 23.659201
1.17214 -0.75266898 23.7805
1.20488 -0.75626302 23.860001
1.2290601 -0.76441902 23.896799
1.4819601 -0.78098398 24.529699
1.6304899 -0.77702701 24.428301
1.66106 -0.77358001 24.389
1.7151 -0.77504098 24.334499
1.74156 -0.77637601 24.309
1.80032 -0.77344602 24.256599
1.82724 -0.77496397 24.238701
1.85282 -0.776124 24.205799
1.88682 -0.77057898 24.1824
1.91424 -0.77228099 24.1721
1.94164 -0.77398598 24.1618
1.97416 -0.77050197 24.1464
2.00649 -0.76757199 24.134899
2.0330999 -0.769104 24.117201
2.06037 -0.77081603 24.106899
2.08761 -0.77253199 24.0966
2.11853 -0.77165699 24.092899
2.1491699 -0.77188802 24.097
2.1807101 -0.76825899 24.0742
2.20785 -0.76998401 24.0639
2.23668 -0.770383 24.055401
2.2687299 -0.769319 24.059401
2.3 -0.769068 24.064199
2.32706 -0.77080601 24.053801
2.3557501 -0.77154899 24.047501
2.3864501 -0.77206898 24.054399
2.41715 -0.77259201 24.061199
2.4458101 -0.77334499 24.0548
2.4744599 -0.77410197 24.048401
2.5063 -0.7744 24.061399
2.53756 -0.77418202 24.066
2.56618 -0.77495003 24.059601
2.6007299 -0.77428102 24.0835
2.6293399 -0.77505702 24.077
2.6617999 -0.77462 24.0877
2.6942799 -0.77418798 24.098499
2.7281101 -0.77403998 24.120199
2.7590301 -0.77666301 24.142599
2.79023 -0.77780598 24.1556
2.8239701 -0.779158 24.186701
2.8553901 -0.77898699 24.191
2.8875101 -0.77934498 24.203699
2.92117 -0.77948099 24.2243
2.9537899 -0.78159201 24.252001
2.98576 -0.78356802 24.274099
3.02 -0.78346997 24.2957
3.0543001 -0.78337997 24.317301
3.0892601 -0.786093 24.361799
3.1245999 -0.786856 24.3948
3.1579199 -0.78768301 24.4153
3.19433 -0.78952998 24.461
3.22808 -0.791318 24.4897
3.2676101 -0.79226202 24.546499
-2.6127 -0.68481702 22.483299
-2.5750301 -0.67570001 22.499901
-2.54757 -0.68083102 22.4279
-2.5132799 -0.67229599 22.48
-2.4821401 -0.66950703 22.4834
-2.4523301 -0.66901702 22.4673
-2.4258599 -0.67114502 22.4531
-2.4026899 -0.67589802 22.440701
-2.3624599 -0.66642803 22.428699
-2.1435299 -0.65787202 22.219299
-2.12076 -0.66260397 22.2071
-2.0787201 -0.651838 22.183901
-2.02862 -0.65838301 22.1371
-2.00245 -0.65951401 22.1394
-1.97579 -0.66054201 22.134899
-1.94779 -0.66033697 22.132799
-1.91712 -0.65765798 22.1359
-1.88731 -0.65611899 22.129499
-1.8566 -0.654369 22.1094
-1.83002 -0.65541399 22.104799
-1.80344 -0.65646398 22.1001
-1.77544 -0.65644401 22.0919
-1.74895 -0.65734202 22.093201
-1.72241 -0.65840501 22.0884
-1.69514 -0.658988 22.079901
-1.66861 -0.66005999 22.075001
-1.63563 -0.65533501 22.080099
-1.60913 -0.65641201 22.075199
-1.58236 -0.65685397 22.0835
-1.55793 -0.659666 22.079599
-1.19498 -0.62565702 21.1924
-1.16313 -0.62187099 21.150101
-1.13494 -0.62088799 21.119699
-1.1149 -0.62660301 21.0993
-1.08428 -0.62351501 21.064699
-1.05734 -0.62320501 21.050301
-1.03043 -0.62290102 21.0359
-1.00041 -0.62001598 21.0126
-0.97533202 -0.62110001 21.008301
-0.94876099 -0.62092501 21.001301
-0.92371398 -0.62201703 20.996901
-0.89407003 -0.61927402 20.9811
-0.86816698 -0.61962599 20.9737
-0.83950102 -0.61763102 20.961
-0.813308 -0.61765701 20.9652
-0.78834403 -0.61876398 20.960699
-0.76339 -0.61987501 20.9561
-0.73844802 -0.62099099 20.951599
-0.71229702 -0.62106699 20.942801
-0.68668199 -0.62159503 20.941601
-0.65961403 -0.62090802 20.949699
-0.63353699 -0.62109298 20.961399
-0.60871398 -0.62233001 20.9629
-0.58271003 -0.622549 20.9613
-0.55627102 -0.62246799 20.9706
-0.52871501 -0.62146902 20.983101
-0.50380999 -0.62261999 20.9783
-0.47780699 -0.62285602 20.9767
-0.450948 -0.622531 20.990999
-0.42369899 -0.62181199 20.998301
-0.39996299 -0.62402999 20.997601
-0.37507901 -0.62520301 20.992701
-0.348308 -0.62503898 21.006901
-0.321843 -0.62527198 21.027599
-0.29654601 -0.62619901 21.0277
-0.27220601 -0.628142 21.0376
-0.24469 -0.627379 21.048401
-0.22005101 -0.629215 21.0634
-0.192856 -0.628573 21.0648
-0.16574401 -0.62830299 21.0788
-0.139678 -0.629035 21.095699
-0.11579 -0.63232398 21.137199
-0.087847002 -0.63140303 21.1493
-0.063269399 -0.63490897 21.215
-0.037065402 -0.63752699 21.2941
-0.013619 -0.65008402 21.621799
0.038185202 -0.68205398 22.5588
0.070736103 -0.67919803 22.5853
0.099262401 -0.679842 22.608801
0.124226 -0.68358099 22.6294
0.152389 -0.68465 22.6528
0.183057 -0.68307799 22.6633
0.211596 -0.68381101 22.684099
0.238034 -0.68693399 22.7173
0.266307 -0.68788302 22.735001
0.29568401 -0.68776202 22.7495
0.32583299 -0.68708801 22.766199
0.35500401 -0.68732899 22.783199
0.38047701 -0.69170302 22.8183
0.41001299 -0.69160599 22.8328
0.442669 -0.68906999 22.853399
0.46965301 -0.69155401 22.872999
0.49709201 -0.69463098 22.9118
0.52679503 -0.69455701 22.926201
0.55658001 -0.69402498 22.9326
0.58485597 -0.69633698 22.966999
0.61454499 -0.697671 23.0051
0.64441401 -0.69761997 23.0194
0.67400402 -0.69861102 23.0473
0.70207101 -0.70182103 23.089001
0.73491901 -0.69994098 23.114901
0.76304001 -0.70349199 23.1602
0.79284602 -0.70430702 23.1835
0.823681 -0.70355999 23.1957
0.85108799 -0.70872098 23.2523
0.88519597 -0.70649803 23.2852
0.91246998 -0.711546 23.334801
0.94390899 -0.710971 23.354099
1.03846 -0.71700501 23.5221
1.0656101 -0.71857297 23.5133
1.1002001 -0.72293699 23.635401
1.14091 -0.72368902 23.779301
1.1696 -0.72576201 23.7922
1.26877 -0.749991 24.208401
1.47042 -0.76376802 24.568399
1.58522 -0.76383901 24.4785
1.69341 -0.74393702 24.4177
1.72864 -0.73700899 24.3864
1.74928 -0.742576 24.350201
1.773 -0.74684399 24.3291
1.80812 -0.739721 24.297501
1.8314101 -0.743891 24.2729
1.86198 -0.74281299 24.261801
1.89355 -0.73843402 24.227301
1.92102 -0.74015099 24.216999
1.94846 -0.741871 24.206699
1.97683 -0.74029797 24.1731
2.00582 -0.73890001 24.1471
2.0324399 -0.74045402 24.1294
2.0613401 -0.74117303 24.123301
2.0920999 -0.74164599 24.1304
2.1231999 -0.74080902 24.1283
2.15255 -0.73956603 24.108299
2.18013 -0.73966002 24.0865
2.21088 -0.73934799 24.086599
2.2415099 -0.73958701 24.090599
2.2723701 -0.73873299 24.086901
2.2994699 -0.74048197 24.076599
2.32654 -0.742235 24.066099
2.3589201 -0.74173999 24.0772
2.3896501 -0.74225199 24.084
2.41835 -0.743011 24.0777
2.4453599 -0.74477702 24.0672
2.4786301 -0.74278802 24.072201
2.5086901 -0.74351603 24.075701
2.5378399 -0.74439198 24.073799
2.5694599 -0.74398601 24.079201
2.6012001 -0.74450701 24.0928
2.6306801 -0.74546498 24.093599
2.6626201 -0.745772 24.106501
2.6939399 -0.74557102 24.111
2.72646 -0.74513203 24.121799
2.7583399 -0.745911 24.1371
2.79143 -0.74591798 24.154499
2.82428 -0.747693 24.183001
2.85496 -0.74975902 24.198999
2.88903 -0.74961102 24.220699
2.92048 -0.74944502 24.225
2.95382 -0.75001502 24.2465
2.9870999 -0.751715 24.275299
3.0204401 -0.75341803 24.304001
3.05267 -0.75424701 24.319201
3.09075 -0.75315899 24.3573
3.1234701 -0.75773102 24.400499
3.15746 -0.75753897 24.4184
3.1898701 -0.75839698 24.433599
3.2259901 -0.75984198 24.474701
3.2672999 -0.75967598 24.5355
3.2960999 -0.760553 24.5282
-2.55127 -0.64993501 22.517799
-2.5206101 -0.64858299 22.505501
-2.49019 -0.64665502 22.504999
-2.46298 -0.647645 22.5005
-2.4279001 -0.64319903 22.4779
-2.4007399 -0.64419502 22.4734
-2.3596599 -0.66096598 22.403601
-2.2954299 -0.65709901 22.3486
-2.0919299 -0.63129699 22.258101
-2.00053 -0.62832999 22.178301
-1.97383 -0.629363 22.1737
-1.94714 -0.63040203 22.1691
-1.92094 -0.63154602 22.1714
-1.89331 -0.63239503 22.152901
-1.8594 -0.62809199 22.131001
-1.83031 -0.62671697 22.134899
-1.80287 -0.62696099 22.133101
-1.77619 -0.62769198 22.135
-1.74845 -0.62756902 22.136299
-1.7218601 -0.62864 22.1315
-1.69487 -0.629614 22.1199
-1.66831 -0.63069302 22.115
-1.64136 -0.63167602 22.1033
-1.61365 -0.631576 22.104401
-1.58609 -0.63116801 22.1189
-1.19521 -0.59919 21.195101
-1.16617 -0.59750903 21.170401
-1.13649 -0.59555298 21.126801
-1.08288 -0.59578001 21.0704
-1.0577199 -0.59686297 21.066
-1.0315599 -0.59730601 21.045799
-1.0003901 -0.59355003 21.017099
-0.97531599 -0.59464002 21.0128
-0.95025003 -0.595734 21.0084
-0.92400599 -0.595743 21.0126
-0.89264399 -0.59164602 20.9869
-0.86594498 -0.59138 20.9725
-0.83974302 -0.59139901 20.9767
-0.81476098 -0.59250897 20.9722
-0.78978902 -0.59362298 20.967699
-0.76482701 -0.59474099 20.9632
-0.73865199 -0.59482503 20.954399
-0.71332598 -0.59561902 20.944201
-0.68686998 -0.59543401 20.955999
-0.65852201 -0.59364301 20.9604
-0.63346303 -0.59468001 20.9648
-0.60891402 -0.59615397 20.965799
-0.58328998 -0.59670198 20.9645
-0.55730897 -0.59705597 20.982901
-0.53009498 -0.59631002 20.990299
-0.50518203 -0.59746897 20.9855
-0.47794601 -0.59673297 20.992901
-0.451074 -0.59639198 21.0072
-0.425053 -0.59663802 21.0056
-0.40015599 -0.59781301 21.0007
-0.374147 -0.598068 20.999001
-0.34720999 -0.59774601 21.013201
-0.31991699 -0.59703499 21.0205
-0.296451 -0.599612 21.025299
-0.26932701 -0.59910899 21.0338
-0.24599899 -0.60215503 21.0557
-0.220213 -0.60304803 21.0741
-0.194151 -0.603333 21.072201
-0.16568901 -0.60207403 21.095301
-0.13957401 -0.60246998 21.099501
-0.115862 -0.605941 21.144199
-0.088947102 -0.60638201 21.175501
-0.063178599 -0.60888499 21.2446
-0.036812801 -0.61205202 21.351601
-0.0110931 -0.62133598 21.6462
0.040800098 -0.65214801 22.5856
0.069889203 -0.65196502 22.6003
0.097908601 -0.65285403 22.618099
0.124128 -0.65590298 22.6514
0.153862 -0.655617 22.6761
0.18329901 -0.65501601 22.682899
0.212588 -0.65539098 22.7122
0.239262 -0.65768099 22.729401
0.26612899 -0.66021901 22.7561
0.29695901 -0.65865099 22.7666
0.32639 -0.65851998 22.7812
0.35478199 -0.659468 22.7988
0.38145801 -0.66320199 22.844101
0.411722 -0.66236901 22.8566
0.44202399 -0.66154301 22.869101
0.47120401 -0.66224998 22.892401
0.49756801 -0.66629499 22.931999
0.52728897 -0.66620398 22.9464
0.559084 -0.66501701 22.9748
0.58494002 -0.66962397 23.0121
0.61576498 -0.66896099 23.0315
0.64634699 -0.66816998 23.0438
0.67389703 -0.67118198 23.0755
0.704817 -0.67179102 23.116501
0.73448098 -0.67214602 23.132
0.76235598 -0.67610198 23.181101
0.79424798 -0.67539698 23.2104
0.824534 -0.67675698 23.248899
0.85351902 -0.67912501 23.2834
0.88314098 -0.68016797 23.304701
0.91577101 -0.68160802 23.373301
0.946881 -0.68086803 23.3855
0.97845 -0.68413502 23.463499
1.00556 -0.68570101 23.4548
1.0415699 -0.68670797 23.5539
1.07364 -0.69003397 23.6327
1.10917 -0.69200402 23.733101
1.13879 -0.69638401 23.790899
1.60794 -0.74273199 24.5044
1.69416 -0.71776402 24.476801
1.75219 -0.71461397 24.4083
1.77742 -0.71569699 24.367399
1.80989 -0.71149099 24.3402
1.8356 -0.71273798 24.3071
1.86253 -0.71430701 24.2892
1.89349 -0.70980501 24.247101
1.92031 -0.711375 24.2293
1.94776 -0.71311003 24.219
1.9744999 -0.71468699 24.201099
2.0057001 -0.71033698 24.1653
2.03687 -0.70948702 24.1633
2.06674 -0.71008098 24.163799
2.09498 -0.71169502 24.160101
2.1243 -0.71079701 24.142401
2.1519499 -0.71091503 24.120501
2.18314 -0.70897102 24.1092
2.2135401 -0.710289 24.120899
2.2446899 -0.70834899 24.1096
2.2718301 -0.71011001 24.099199
2.2989399 -0.71187401 24.0888
2.33025 -0.71161801 24.0937
2.3620999 -0.71186298 24.1068
2.39083 -0.71262801 24.1005
2.4185901 -0.71320099 24.0853
2.4505799 -0.712282 24.0896
2.4830101 -0.71179098 24.100599
2.5102501 -0.71195 24.0786
2.5406301 -0.71180898 24.0774
2.5717001 -0.712924 24.091101
2.6020701 -0.71279001 24.0898
2.63287 -0.71533501 24.1124
2.6658101 -0.71495801 24.1269
2.69361 -0.716932 24.1236
2.72614 -0.71648002 24.1343
2.7586901 -0.71603203 24.1451
2.79263 -0.71584302 24.166901
2.82322 -0.716362 24.1712
2.8573999 -0.71820301 24.208799
2.88942 -0.719639 24.2288
2.92151 -0.72042698 24.244101
2.9542301 -0.72000998 24.2547
2.98844 -0.71985602 24.2764
3.0197101 -0.72248399 24.2988
3.0510299 -0.72511703 24.3211
3.0871699 -0.72397101 24.347
3.1197801 -0.72484899 24.3645
3.1570599 -0.72571898 24.4104
3.1903701 -0.72817498 24.442101
3.2249601 -0.72806501 24.4638
3.26142 -0.73006099 24.510401
3.3022799 -0.729186 24.563601
-2.5620301 -0.62852198 22.5509
-2.5222199 -0.61907899 22.546101
-2.4942801 -0.61998099 22.5345
-2.4663701 -0.62088799 22.5228
-2.43155 -0.61543298 22.5207
-2.3994 -0.61251003 22.5133
-2.37796 -0.61864197 22.5033
-2.34972 -0.619488 22.4865
-2.32072 -0.62022901 22.460501
-2.2340801 -0.62246102 22.382799
-2.04024 -0.60670501 22.256901
-2.0134399 -0.60775 22.252199
-1.92264 -0.60363901 22.2057
-1.89218 -0.60133803 22.2057
-1.8704 -0.60729098 22.183701
-1.84372 -0.60835803 22.1789
-1.81075 -0.60425299 22.1709
-1.78409 -0.605326 22.1661
-1.75431 -0.60382098 22.159599
-1.72768 -0.60490203 22.1548
-1.6971101 -0.60321599 22.1346
-1.66821 -0.60191101 22.141899
-1.6406699 -0.601852 22.1465
-1.61413 -0.60277402 22.1476
-1.58655 -0.602898 22.1462
-1.19704 -0.573852 21.208599
-1.16959 -0.57348102 21.1877
-1.13852 -0.57037902 21.1465
-1.1062 -0.56610399 21.1078
-1.08327 -0.56939697 21.0861
-1.05924 -0.57159197 21.073
-1.0304199 -0.56979501 21.054001
-1.0018899 -0.56833303 21.024099
-0.97564 -0.56832898 21.0284
-0.94937801 -0.56832898 21.0327
-0.92046499 -0.566351 21.0112
-0.89314801 -0.56564701 20.9935
-0.86619997 -0.56511903 20.988199
-0.84119999 -0.56623203 20.9837
-0.81620902 -0.56734902 20.9793
-0.79123002 -0.56847 20.9748
-0.76502901 -0.56856102 20.966
-0.73967701 -0.56936502 20.955799
-0.71282297 -0.56886202 20.946501
-0.685682 -0.56808299 20.9541
-0.65738899 -0.56632698 20.9517
-0.63328898 -0.56817502 20.962099
-0.60838002 -0.56932199 20.957399
-0.583417 -0.57050502 20.978901
-0.55750102 -0.570907 20.999001
-0.53147101 -0.57113898 20.997499
-0.50655001 -0.57230598 20.992701
-0.47894499 -0.57128799 21.005199
-0.45243201 -0.57120299 21.0144
-0.42640299 -0.57145202 21.0128
-0.40149799 -0.57263499 21.0079
-0.374217 -0.571908 21.0152
-0.34726799 -0.57156998 21.029499
-0.32124099 -0.57183498 21.0278
-0.29635301 -0.57303399 21.0228
-0.27063799 -0.57389599 21.041201
-0.244075 -0.57409698 21.061899
-0.22013099 -0.576415 21.071699
-0.194107 -0.577097 21.0886
-0.166977 -0.57679403 21.102699
-0.140898 -0.57709002 21.1008
-0.11714 -0.58060902 21.151699
-0.088661097 -0.580015 21.198
-0.064451396 -0.58343899 21.252199
-0.037870899 -0.58678299 21.378201
-0.0123892 -0.595433 21.654301
0.041448999 -0.623873 22.610701
0.0714017 -0.62308103 22.630301
0.097027101 -0.62576002 22.6376
0.125899 -0.62714499 22.692499
0.15379 -0.62756097 22.6891
0.183057 -0.62738502 22.7038
0.21126699 -0.62828201 22.7216
0.237748 -0.63133299 22.754999
0.26642799 -0.63203502 22.7759
0.297286 -0.630454 22.7864
0.32673499 -0.63030601 22.801001
0.354087 -0.63217902 22.8188
0.380779 -0.635674 22.8596
0.41344601 -0.63308001 22.880501
0.44289899 -0.63329399 22.8993
0.470258 -0.63581401 22.926901
0.49757701 -0.638394 22.9536
0.52871901 -0.63684702 22.964001
0.55786598 -0.63761699 22.984699
0.58547097 -0.64096999 23.028601
0.61521697 -0.64122498 23.0474
0.64751202 -0.64015102 23.0832
0.67539901 -0.64372098 23.130899
0.70613402 -0.64292699 23.1432
0.73483503 -0.64521402 23.177799
0.76362401 -0.64751399 23.2124
0.79448098 -0.646734 23.2246
0.82538599 -0.64983702 23.3022
0.85638601 -0.64906901 23.314501
0.886536 -0.651806 23.3708
0.91539598 -0.65349102 23.3899
0.94800103 -0.653813 23.4394
1.01056 -0.65838599 23.5567
1.04909 -0.65783399 23.6663
1.07891 -0.662781 23.738899
1.10736 -0.666008 23.767
1.6184 -0.70935601 24.5854
1.76121 -0.680902 24.465099
1.78522 -0.681732 24.408701
1.80497 -0.68864101 24.3769
1.83549 -0.684003 24.327
1.86309 -0.68574899 24.316601
1.8880399 -0.68688297 24.275999
1.9220999 -0.68141103 24.252399
1.9495699 -0.68316102 24.2421
1.97934 -0.68300802 24.2335
2.0146201 -0.676835 24.215099
2.0413101 -0.67843801 24.1973
2.06866 -0.68019599 24.186899
2.0959799 -0.68195701 24.1766
2.1236899 -0.68210202 24.1546
2.15534 -0.67854601 24.1318
2.18576 -0.679847 24.1436
2.2162099 -0.67911899 24.136999
2.2441399 -0.67968899 24.121901
2.2729399 -0.68044901 24.1157
2.30371 -0.68093503 24.1227
2.3344901 -0.68142498 24.129601
2.36326 -0.68219501 24.1234
2.3903501 -0.68398499 24.1129
2.4193101 -0.68346798 24.097401
2.45241 -0.68168002 24.102699
2.48283 -0.68153203 24.1015
2.5100601 -0.68171299 24.079599
2.5425 -0.68122 24.0905
2.57496 -0.680731 24.1015
2.6019001 -0.68254 24.0909
2.6341901 -0.68368202 24.1131
2.6666901 -0.68320698 24.124001
2.69525 -0.68642402 24.1357
2.7265699 -0.68711197 24.1467
2.7601199 -0.68633097 24.1619
2.7921901 -0.68663001 24.1747
2.82359 -0.68643701 24.179199
2.8564701 -0.687132 24.1999
2.88871 -0.68880802 24.2234
2.92101 -0.69049001 24.246799
2.95403 -0.69119799 24.267599
2.9868 -0.69077402 24.2782
3.0195799 -0.69035399 24.288799
3.05373 -0.69164997 24.319901
3.08673 -0.69304597 24.344
3.1194401 -0.69541103 24.3727
3.1563699 -0.69367802 24.398899
3.1886401 -0.69562203 24.421
3.2217801 -0.69851798 24.454599
3.2630301 -0.69664198 24.504801
3.30072 -0.6983 24.556299
-2.46789 -0.59132397 22.563499
-2.4372399 -0.590011 22.551201
-2.4099801 -0.59102601 22.5466
-2.3477099 -0.58765799 22.5194
-2.3205199 -0.58868301 22.514799
-2.00898 -0.54603899 22.4051
-1.9907 -0.55656701 22.346001
-1.9852 -0.57746899 22.2938
-1.95737 -0.57836401 22.2752
-1.92225 -0.57391697 22.239201
-1.89455 -0.57481599 22.2206
-1.8621401 -0.571356 22.2111
-1.8397599 -0.57570797 22.2138
-1.81305 -0.57678598 22.209
-1.78636 -0.57786798 22.204201
-1.75893 -0.57848102 22.1957
-1.7282799 -0.57617599 22.191999
-1.6959701 -0.57222903 22.1943
-1.66643 -0.57143098 22.174601
-1.64055 -0.57300198 22.1735
-1.61532 -0.57535201 22.165899
-1.5894901 -0.57663399 22.174801
-1.1991301 -0.54856598 21.228399
-1.17275 -0.54934198 21.198601
-1.1400599 -0.54500699 21.1535
-1.10797 -0.54084998 21.121201
-1.08231 -0.54178602 21.1043
-1.05961 -0.54519302 21.0888
-1.02618 -0.53978097 21.052799
-1.00107 -0.54088098 21.0485
-0.97596002 -0.54198498 21.0441
-0.94935 -0.54184097 21.037201
-0.91942698 -0.53905201 21.014
-0.89267898 -0.538818 20.999599
-0.86765999 -0.53993303 20.995199
-0.84265202 -0.541053 20.9907
-0.81765401 -0.54217798 20.9863
-0.79142898 -0.54227602 20.9776
-0.76605099 -0.54308999 20.9673
-0.739474 -0.54287797 20.9529
-0.70987302 -0.54000401 20.952499
-0.683263 -0.53966999 20.9594
-0.65764499 -0.54021001 20.9582
-0.63310897 -0.541677 20.959299
-0.60805202 -0.54270703 20.9638
-0.58291 -0.54370397 20.979401
-0.55624199 -0.54343498 20.9995
-0.53166097 -0.54492402 21.0005
-0.506809 -0.546197 21.003099
-0.48030499 -0.54609799 21.0124
-0.45378599 -0.54600298 21.021601
-0.42774999 -0.54625398 21.02
-0.40171701 -0.54650998 21.0184
-0.375164 -0.54643101 21.027599
-0.34859601 -0.546354 21.0368
-0.32256201 -0.54662198 21.035101
-0.29653201 -0.54689503 21.0333
-0.26991999 -0.54696202 21.051701
-0.243568 -0.54720497 21.064501
-0.220045 -0.54979199 21.069201
-0.195013 -0.55141097 21.0919
-0.16711199 -0.55056399 21.1134
-0.139893 -0.55027598 21.1306
-0.116656 -0.55411297 21.1772
-0.0916619 -0.55536401 21.1719
-0.065527797 -0.55825502 21.278601
