# .PCD v0.7 - Point Cloud Data file format
VERSION 0.7
FIELDS x y z
SIZE 4 4 4
TYPE F F F
COUNT 1 1 1
WIDTH 1647
HEIGHT 1
VIEWPOINT 0 0 0 1 0 0 0
POINTS 1647
DATA ascii
2.4960899 -0.107363 22.9303
2.5229199 -0.108907 22.927099
2.55176 -0.109927 22.936199
2.5852201 -0.108974 22.966
2.6145301 -0.109678 22.9755
2.64675 -0.108555 22.9923
2.67869 -0.109392 23.0242
2.7127099 -0.11006 23.070801
2.7465601 -0.109991 23.1085
2.7841001 -0.110137 23.176701
2.82373 -0.110303 23.2603
2.8613801 -0.111526 23.335899
2.9010899 -0.112209 23.4212
-3.9669399 -0.0779773 23.5014
-3.9306901 -0.074570902 23.483299
-3.8948801 -0.071659997 23.464199
-3.86642 -0.074103802 23.449699
-3.8314099 -0.070835702 23.437599
-3.80215 -0.07068 23.4377
-3.7736599 -0.071658202 23.433901
-3.7451701 -0.072643198 23.430099
-3.7145801 -0.072619602 23.420601
-3.68467 -0.072543502 23.4158
-3.6509199 -0.070416197 23.402201
-3.6191599 -0.068122402 23.4027
-3.5892999 -0.068059497 23.3979
-2.6809499 -0.0372121 21.084299
-2.65556 -0.0381191 21.0818
-2.6213 -0.035638198 21.0411
-2.5925901 -0.034729701 21.029301
-2.56374 -0.034409299 21.010099
-2.5348699 -0.0343793 20.987301
-2.5088999 -0.035109799 20.9807
-2.48212 -0.035109598 20.9748
-2.4530599 -0.035139099 20.9487
-2.42433 -0.034563299 20.9314
-2.3970101 -0.033532299 20.9312
-2.3693399 -0.033402 20.9181
-2.34234 -0.033753701 20.9053
-2.31323 -0.033271 20.8822
-2.2874601 -0.034030799 20.875601
-2.2598801 -0.033074599 20.8715
-2.23156 -0.032796402 20.8524
-2.2041099 -0.0326843 20.8393
-2.1782601 -0.033484299 20.8307
-2.15167 -0.033546399 20.8235
-2.1266601 -0.034522999 20.8207
-2.1001 -0.034596801 20.8134
-2.0750999 -0.035583202 20.8106
-2.04704 -0.035327401 20.791599
-2.0209301 -0.035068002 20.792601
-1.9928499 -0.033968698 20.783501
-1.96663 -0.0328735 20.794399
-1.94156 -0.033514898 20.795
-1.91821 -0.034820899 20.805901
-1.89405 -0.035708901 20.813601
-1.87064 -0.036527999 20.8312
-1.8447599 -0.035165701 20.8512
-1.82021 -0.036125399 20.8543
-1.79425 -0.0361626 20.8543
-1.76928 -0.035868101 20.871
-1.7460099 -0.036196299 20.9
-1.72159 -0.037146401 20.9062
-1.69831 -0.037471801 20.9366
-1.67296 -0.0372402 20.9499
-1.65054 -0.039191999 20.9678
-1.627 -0.038619999 21.0116
-1.5997699 -0.036340799 21.034599
-1.58024 -0.038934302 21.084299
-1.5553499 -0.037966002 21.120199
-1.53329 -0.0378149 21.183901
-1.51543 -0.041345298 21.247299
-1.11687 0.045181599 20.348
-0.188795 -0.055286199 23.498899
-0.017494701 -0.059824999 23.422701
0.0101558 -0.061353602 23.430099
0.041392099 -0.059739701 23.4426
0.0717007 -0.058944199 23.450199
0.10144 -0.058437001 23.4196
0.126624 -0.062258098 23.434999
0.15984 -0.058890101 23.4398
0.18534601 -0.062558301 23.463301
0.21675099 -0.060713202 23.4576
0.24773701 -0.059650201 23.485901
0.27808499 -0.0585717 23.464899
0.308687 -0.057941701 23.495399
0.33969599 -0.0567647 23.5089
0.368929 -0.057029299 23.511801
0.40047601 -0.055546802 23.531799
0.42944801 -0.0560867 23.5354
0.45663601 -0.057849299 23.5201
1.8873 -0.0745444 23.1903
1.91527 -0.073804103 23.1668
1.9417 -0.074670203 23.146601
1.96831 -0.073484197 23.1035
1.99528 -0.074321397 23.090401
2.0223501 -0.0736304 23.060101
2.0486 -0.073986799 23.034401
2.0754299 -0.074830003 23.021299
2.1022301 -0.0756796 23.0082
2.12832 -0.0760452 22.9825
2.1543601 -0.076407902 22.9569
2.18103 -0.0772596 22.9438
2.20947 -0.077800602 22.945101
2.2404201 -0.076979697 22.9566
2.2695701 -0.076481 22.9536
2.2953999 -0.076862402 22.927999
2.32125 -0.078779802 22.919201
2.3484299 -0.0780904 22.8962
2.37884 -0.077676103 22.906601
2.40763 -0.0782931 22.912201
2.4346299 -0.079503797 22.907301
2.4642501 -0.0790186 22.9093
2.49563 -0.077974103 22.921499
2.52232 -0.079892598 22.9207
2.55316 -0.079392299 22.932899
2.5846 -0.079915598 22.9596
2.61338 -0.0812838 22.9711
2.6447501 -0.082083002 22.9988
2.6777899 -0.080549702 23.018499
2.7116399 -0.0812001 23.0641
2.74648 -0.080219701 23.1022
2.78547 -0.080754504 23.186501
2.82319 -0.082157001 23.2665
2.8596599 -0.083690703 23.336201
2.90257 -0.0830746 23.436399
-3.96735 -0.047070201 23.516701
-3.9318099 -0.043480098 23.504601
-3.8965299 -0.042645 23.473499
-3.8650999 -0.041765898 23.4659
-3.83303 -0.041555099 23.4491
-3.8045199 -0.042533401 23.4454
-3.7760301 -0.043518599 23.441601
-3.74753 -0.044510599 23.437799
-3.71557 -0.0443235 23.4209
-3.6840899 -0.043668501 23.410601
-3.6503301 -0.040578499 23.404499
-3.62006 -0.0389481 23.4095
-3.5887599 -0.0378257 23.403799
-2.65273 -0.0117035 21.0613
-2.62131 -0.0093751596 21.042101
-2.5933599 -0.0092307804 21.028999
-2.5619099 -0.00787031 20.9991
-2.53497 -0.0078858901 20.992001
-2.5090499 -0.0089033199 20.983
-2.4799399 -0.0089612799 20.957001
-2.45118 -0.0084025599 20.9396
-2.42448 -0.0087012304 20.9307
-2.3975401 -0.00847397 20.925301
-2.36851 -0.0071337102 20.9132
-2.3399799 -0.0071541299 20.890499
-2.3139701 -0.0082383398 20.8783
-2.2876101 -0.0079528596 20.878
-2.25824 -0.0067037302 20.8608
-2.2307701 -0.0066038398 20.8477
-2.2049 -0.0074106199 20.8391
-2.1782999 -0.0074774502 20.8319
-2.15327 -0.0084536104 20.829201
-2.1266999 -0.0085323704 20.821899
-2.0985701 -0.0082932403 20.8029
-2.07128 -0.0082150102 20.789801
-2.0455501 -0.0090452703 20.7812
-2.0195799 -0.0090531902 20.780199
-1.99336 -0.0088158101 20.7796
-1.96763 -0.0084998198 20.7854
-1.9420201 -0.0078720897 20.7966
-1.91614 -0.0078805201 20.796801
-1.8911999 -0.0089023104 20.7938
-1.86763 -0.00968144 20.8097
-1.84217 -0.0088377399 20.826599
-1.8182 -0.0091284998 20.8454
-1.7947201 -0.0104536 20.856001
-1.77001 -0.0104574 20.8713
-1.74527 -0.0104672 20.886499
-1.71969 -0.0108408 20.8866
-1.69914 -0.0124016 20.9317
-1.67305 -0.0110936 20.9515
-1.6469899 -0.0111643 20.951401
-1.6234699 -0.0105404 20.9951
-1.60142 -0.0123877 21.0207
-1.57741 -0.0120923 21.0553
-1.55522 -0.0122149 21.108999
-1.53212 -0.0125252 21.149
-1.51221 -0.0124615 21.242001
-1.16198 0.0608381 20.4629
1.91462 -0.046047501 23.177
1.94125 -0.045419 23.139601
1.96845 -0.0447497 23.109301
1.99542 -0.045607001 23.0961
2.0221901 -0.0447134 23.0595
2.0487499 -0.0453352 23.0401
2.0755899 -0.046198301 23.027
2.1017399 -0.0465932 23.001301
2.12783 -0.046985101 22.9757
2.1545401 -0.047850199 22.962601
2.18049 -0.0497646 22.953899
2.2083399 -0.049909599 22.944799
2.23809 -0.048287399 22.935499
2.2678001 -0.046667401 22.9261
2.2948599 -0.047864702 22.921301
2.3213999 -0.048747599 22.9083
2.34881 -0.049598798 22.9034
2.37921 -0.049463499 22.916599
2.4091001 -0.049063198 22.9221
2.43487 -0.0510053 22.9132
2.4647701 -0.0506161 22.9186
2.4952199 -0.0505016 22.9317
2.5225899 -0.051377401 22.926701
2.5525 -0.051003199 22.931999
2.5839901 -0.0508724 22.9533
2.6143601 -0.050933 22.966299
2.6467099 -0.052397601 23.0089
2.6772201 -0.052687101 23.0243
2.7077501 -0.052985702 23.0396
2.7444999 -0.0536175 23.108801
2.78107 -0.052725799 23.1614
2.82091 -0.053476602 23.253901
2.85866 -0.054184798 23.327499
2.9023399 -0.055003699 23.4475
-3.96843 -0.0192142 23.5135
-3.9354 -0.0151359 23.520201
-3.8960199 -0.0126079 23.4771
-3.86607 -0.013416 23.466101
-3.8354001 -0.0133911 23.456699
-3.80689 -0.0143763 23.452999
-3.7783799 -0.0153684 23.4492
-3.7477601 -0.0153637 23.439699
-3.71488 -0.0145498 23.422001
-3.6802599 -0.0109683 23.4144
-3.65083 -0.0098184403 23.421101
-3.6215999 -0.0096962303 23.421101
-3.5920899 -0.0108292 23.409201
-2.65028 0.0139932 21.0371
-2.6230199 0.015983701 21.0478
-2.5924301 0.01716 21.023899
-2.5619199 0.0183386 21.000099
-2.5349801 0.0183107 20.993
-2.50687 0.018098701 20.9743
-2.4774799 0.018546 20.951099
-2.4513199 0.017463701 20.9389
-2.42488 0.017770801 20.9387
-2.3970201 0.017225699 20.917299
-2.36674 0.018974099 20.8988
-2.3394499 0.019122699 20.888901
-2.3155999 0.0169231 20.884001
-2.28666 0.0176109 20.864901
-2.2571499 0.0185699 20.843201
-2.22997 0.019573299 20.843
-2.2049301 0.018603301 20.8403
-2.1783199 0.018524099 20.833099
-2.1510501 0.0184875 20.819799
-2.12514 0.0177637 20.811399
-2.0970399 0.0179841 20.7924
-2.0720699 0.016992601 20.7896
-2.0455799 0.0168972 20.7824
-2.0206399 0.015895899 20.7796
-1.9947701 0.015900699 20.7798
-1.96833 0.0168074 20.7855
-1.94357 0.017186301 20.802299
-1.91769 0.0171776 20.8025
-1.89274 0.016150501 20.799601
-1.86686 0.0161303 20.7997
-1.84201 0.016483899 20.816401
-1.81657 0.0167774 20.826099
-1.79318 0.0157985 20.8421
-1.77036 0.0148142 20.865101
-1.7457401 0.0152787 20.888201
-1.7197599 0.015227 20.888201
-1.69374 0.0165605 20.908001
-1.6711 0.015679101 20.937401
-1.64851 0.0140651 20.957399
-1.62314 0.0147652 20.9778
-1.5997601 0.0140569 21.003
-1.5763 0.0136871 21.0333
-1.55449 0.0130113 21.082001
-1.5299799 0.0139515 21.1217
-1.50942 0.0120541 21.1709
-1.4894 0.0122113 21.264
-1.43139 -0.0092704501 21.2125
-1.2037899 0.079089701 20.570999
-1.18196 0.076086 20.569901
1.91396 -0.0182737 23.187201
1.94109 -0.0164127 23.138901
1.96782 -0.017052099 23.1194
1.99496 -0.016429201 23.0891
2.0220301 -0.0158018 23.058901
2.0489099 -0.016678501 23.045799
2.07511 -0.017102599 23.0201
2.1012499 -0.0175237 22.994499
2.128 -0.018402301 22.9814
2.1547201 -0.019287299 22.9683
2.1809001 -0.020061901 22.948799
2.2086 -0.0202845 22.938999
2.2384901 -0.018601 22.930401
2.2676201 -0.018497299 22.9319
2.2950799 -0.019346301 22.927099
2.32092 -0.0212851 22.918301
2.34834 -0.022142701 22.9135
2.3792801 -0.020931 22.920601
2.4093399 -0.0205475 22.9279
2.4351201 -0.0225011 22.9191
2.4642501 -0.022787301 22.924299
2.4956501 -0.0219671 22.938999
2.5221901 -0.0238941 22.936899
2.55212 -0.023512701 22.942301
2.58427 -0.022314601 22.959299
2.61463 -0.022198001 22.970501
2.64452 -0.0225283 22.9818
2.67502 -0.0243205 23.0116
2.70807 -0.0243241 23.045799
2.74121 -0.0243396 23.08
2.7755201 -0.025168899 23.130501
2.82408 -0.0230303 23.269699
2.8638899 -0.0227155 23.3515
2.9022601 -0.0243154 23.436899
-3.96737 0.0103574 23.510201
-3.9356201 0.0141093 23.521999
-3.8984001 0.0155936 23.484699
-3.8662901 0.0157685 23.468
-3.83777 0.0147834 23.4643
-3.8092501 0.0137913 23.460501
-3.7786 0.0137893 23.451099
-3.7456901 0.0145865 23.433399
-3.71188 0.0176742 23.427401
-3.68098 0.018951399 23.425699
-3.6531501 0.0183139 23.428699
-3.62392 0.018435299 23.428699
-2.74423 0.16369499 20.681999
-2.6512899 0.039975598 21.043501
-2.6247101 0.041349702 21.0534
-2.59149 0.043536801 21.018801
-2.5636001 0.0436505 21.005699
-2.5331399 0.044789001 20.982
-2.5043499 0.0447331 20.9592
-2.4769101 0.044889402 20.949301
-2.45297 0.042700302 20.9445
-2.42382 0.0433832 20.9254
-2.3940301 0.044716399 20.9072
-2.3668101 0.045360301 20.9035
-2.3410699 0.0443005 20.894501
-2.31336 0.043720499 20.8731
-2.2838099 0.044656899 20.8514
-2.2572999 0.044314802 20.842501
-2.23247 0.043677699 20.8454
-2.2049501 0.0446117 20.8414
-2.1767299 0.044814799 20.822399
-2.14856 0.0450188 20.803499
-2.12358 0.044033401 20.8008
-2.09706 0.043937601 20.7936
-2.0720999 0.0429423 20.7908
-2.04561 0.042834502 20.7836
-2.0184901 0.042764001 20.7703
-1.99345 0.042161401 20.771299
-1.9677401 0.0424929 20.7771
-1.94023 0.044459399 20.784901
-1.91552 0.043735102 20.7882
-1.8906699 0.043046501 20.7904
-1.86731 0.041769098 20.801201
-1.8419 0.0420794 20.811001
-1.8170201 0.042449601 20.8277
-1.7911201 0.0424156 20.827801
-1.76627 0.042920601 20.8475
-1.74277 0.0429703 20.877199
-1.71982 0.041290302 20.8897
-1.69455 0.041578699 20.903099
-1.66965 0.042014401 20.9235
-1.64604 0.041009702 20.939301
-1.62332 0.0404885 20.974001
-1.59712 0.041486401 20.988501
-1.5747 0.0404763 21.0217
-1.55133 0.040399302 21.058001
-1.52952 0.038862601 21.0933
-1.5059 0.041060999 21.1654
-1.4888 0.037231501 21.231501
-1.2236201 0.093814999 20.6605
1.91413 0.0108066 23.190001
1.94016 0.0115457 23.1427
1.96766 0.0119203 23.1187
1.9945 0.0127314 23.0821
2.02143 0.0118451 23.069
2.04844 0.0124263 23.0389
2.07463 0.011976 23.013201
2.1014199 0.011084 23.0002
2.12818 0.0101855 22.987101
2.1542201 0.0097262403 22.9615
2.1805501 0.0090486398 22.9422
2.20755 0.0084161405 22.9298
2.2377601 0.0092331599 22.9345
2.2671199 0.0090014301 22.941999
2.29459 0.0081460401 22.937201
2.3211401 0.0072270799 22.924101
2.34811 0.00633595 22.9151
2.3785501 0.0080851298 22.9118
2.4087701 0.0084234904 22.921301
2.43455 0.0064600101 22.9125
2.4647901 0.00678758 22.922001
2.49543 0.0076824999 22.929199
2.52226 0.0061235498 22.9261
2.55163 0.00434596 22.948
2.5839 0.0052154502 22.9695
2.6138699 0.0055929702 22.974899
2.6444499 0.00571188 22.9879
2.6759 0.0057226899 23.009199
2.70839 0.0043436298 23.051901
2.74014 0.0044956701 23.0732
2.77391 0.0024954199 23.1306
2.8189399 0.0049227001 23.239599
2.85956 0.0050873398 23.3307
2.9012599 0.00630076 23.4193
-3.96926 0.0365634 23.500401
-3.9365599 0.0425108 23.5221
-3.8993499 0.043953601 23.4848
-3.86865 0.043960001 23.4755
-3.8401201 0.042968199 23.4718
-3.8094599 0.042959601 23.4624
-3.77651 0.043740202 23.4447
-3.7404799 0.046052098 23.4193
-3.71385 0.047425002 23.444799
-3.6839399 0.047478899 23.440201
-3.6547 0.0476056 23.440201
-3.62623 0.046577401 23.4363
-2.62431 0.066368103 21.0394
-2.5905499 0.069897197 21.0137
-2.56359 0.069856003 21.006701
-2.5322199 0.071104303 20.9769
-2.5037601 0.071079202 20.957399
-2.47856 0.070142001 20.954901
-2.4506299 0.069551498 20.9335
-2.42085 0.070479602 20.911699
-2.3942001 0.070145503 20.9028
-2.36782 0.070443802 20.902599
-2.33898 0.071165398 20.885799
-2.3104801 0.070754901 20.859501
-2.2839501 0.070405997 20.8507
-2.2588999 0.069437101 20.848101
-2.2300701 0.0700721 20.8291
-2.2038 0.069989398 20.8249
-2.1751299 0.071078897 20.8118
-2.1485801 0.070982799 20.8046
-2.1236 0.069993697 20.801901
-2.09708 0.069885597 20.794701
-2.06991 0.069806397 20.7815
-2.04409 0.069050997 20.773001
-2.01612 0.0692164 20.7542
-1.99121 0.068205804 20.751301
-1.9638799 0.069099002 20.7472
-1.93918 0.069518201 20.764099
-1.91386 0.069858797 20.774
-1.88842 0.0695282 20.774401
-1.86568 0.067909099 20.7871
-1.8398499 0.0689767 20.801901
-1.81716 0.068458602 20.830299
-1.79264 0.067509398 20.833599
-1.76673 0.067468397 20.833599
-1.7416199 0.068249799 20.8542
-1.7177401 0.067898497 20.8738
-1.69414 0.066719502 20.8857
-1.67019 0.066703603 20.9105
-1.64411 0.067730702 20.9251
-1.62313 0.064953901 20.947399
-1.59824 0.066656902 20.988199
-1.57253 0.066675298 20.994301
-1.54853 0.067091301 21.0289
-1.52648 0.067099899 21.084
-1.50343 0.066224903 21.113501
-1.48431 0.065697096 21.2029
-1.4614 0.063921697 21.2229
-1.44405 0.058431402 21.2605
-1.2721699 0.111173 20.840099
-1.24348 0.108562 20.749901
1.9136 0.040302299 23.1786
1.9403 0.040332299 23.1483
1.96798 0.042134199 23.107201
1.99465 0.041446399 23.087799
2.02158 0.040540099 23.074699
2.04828 0.041301601 23.0382
2.07479 0.040608499 23.0189
2.1008501 0.038667802 23.010201
2.1276801 0.039208099 22.9802
2.1540599 0.038509201 22.960899
2.1803899 0.037809201 22.941601
2.2088201 0.037276302 22.9431
2.2372501 0.036740001 22.9445
2.2672901 0.038620401 22.935101
2.29475 0.038138501 22.9261
2.3203599 0.036509901 22.9114
2.3480101 0.035689902 22.9084
2.3790901 0.037641399 22.9093
2.4082 0.037378099 22.9147
2.43397 0.035404898 22.905899
2.46402 0.035796098 22.913099
2.4946899 0.036334101 22.9245
2.5216601 0.035087399 22.9196
2.5531199 0.0356902 22.937099
2.58395 0.0352576 22.958799
2.61339 0.033493701 22.9807
2.6441 0.033282701 22.998199
2.6761799 0.034510899 23.0135
2.7077501 0.033461299 23.045601
2.7393999 0.032407399 23.0777
2.77741 0.034622099 23.1325
2.8139501 0.033523299 23.204201
2.85726 0.033785101 23.318001
2.9010301 0.0343787 23.4303
-3.97192 0.069468603 23.5425
-3.9317 0.073014401 23.5033
-3.8995399 0.073153302 23.486601
-3.8710001 0.072161801 23.483
-3.8403201 0.072146803 23.4736
-3.81039 0.071282297 23.4625
-3.7725 0.073793203 23.4277
-3.7426801 0.075734101 23.437599
-3.71473 0.0766614 23.4515
-3.6854801 0.076793499 23.451599
-3.6570101 0.0757652 23.447701
-3.62854 0.074729897 23.443899
-2.62391 0.090815499 21.020399
-2.5922301 0.095227599 21.0193
-2.5617199 0.096314199 20.995501
-2.5329599 0.096520402 20.9764
-2.50541 0.096343398 20.9629
-2.4763801 0.097063601 20.9461
-2.4486401 0.096231602 20.923901
-2.4209599 0.096294999 20.9109
-2.3958299 0.095342502 20.9084
-2.3671601 0.096188404 20.894699
-2.33815 0.096459299 20.871799
-2.3106101 0.096507996 20.858801
-2.2855501 0.095540099 20.856199
-2.25669 0.0961558 20.8372
-2.2272601 0.097033203 20.815599
-2.20082 0.096662797 20.806801
-2.1758399 0.0956797 20.8041
-2.15014 0.0960612 20.8102
-2.1212399 0.0964984 20.787201
-2.09552 0.096096501 20.7841
-2.0674801 0.096245497 20.7652
-2.0425701 0.0952411 20.762501
-2.01613 0.095116399 20.755301
-1.99123 0.094102003 20.752501
-1.96541 0.094104499 20.7528
-1.93986 0.094785899 20.764099
-1.91429 0.095463999 20.7754
-1.88845 0.095452704 20.7757
-1.8635499 0.094411999 20.772699
-1.8391 0.093476497 20.775999
-1.81402 0.094906203 20.803301
-1.79062 0.094420202 20.824499
-1.76717 0.0931409 20.835199
-1.74248 0.093205899 20.8505
-1.71672 0.093839303 20.861601
-1.69223 0.092888102 20.865999
-1.6682301 0.093361102 20.896299
-1.64417 0.093832701 20.9266
-1.61959 0.092861399 20.930901
-1.59542 0.093314603 20.961201
-1.57162 0.092759803 20.982201
-1.548 0.092550799 21.011299
-1.5256 0.092242002 21.055599
-1.50257 0.091760203 21.090401
-1.48051 0.091597199 21.144501
-1.46064 0.0916631 21.233601
-1.44555 0.084013097 21.2668
-1.29382 0.123111 20.9007
1.914 0.070111297 23.1742
1.9404401 0.069123603 23.153999
1.96706 0.070055701 23.110901
1.99403 0.069139801 23.097799
2.0211101 0.069653101 23.0676
2.04737 0.069143303 23.041901
2.0742099 0.0682218 23.0289
2.1006899 0.067498997 23.009501
2.1275301 0.068007797 22.9795
2.1538999 0.067286603 22.9603
2.1798501 0.0653302 22.951599
2.2085099 0.065536998 22.946699
2.2380099 0.0662416 22.944901
2.26721 0.067988098 22.9282
2.29422 0.067083001 22.919399
2.32075 0.066138104 22.906401
2.34816 0.065264799 22.9016
2.3785601 0.065466501 22.9149
2.4084499 0.065896101 22.9205
2.4342201 0.063911296 22.911699
2.4641199 0.064329498 22.9172
2.49457 0.064509802 22.930401
2.52194 0.063611299 22.925501
2.5541699 0.064537399 22.947001
2.5833399 0.064250201 22.952299
2.6126499 0.062933497 22.968901
2.6445701 0.0619094 23.0056
2.6765699 0.062785402 23.023701
2.7071099 0.0625633 23.0392
2.7397001 0.0612748 23.082001
2.77648 0.063152596 23.130199
2.81159 0.061715402 23.1938
2.8587799 0.064530902 23.3181
2.89539 0.063799702 23.384501
-4.0021901 0.099902302 23.557501
-3.9735501 0.098915897 23.553801
-3.93262 0.101383 23.5033
-3.90189 0.101372 23.493999
-3.8733499 0.100374 23.4904
-3.8412399 0.100477 23.4736
-3.8082399 0.102027 23.4617
-3.7734599 0.10491 23.4487
-3.7455299 0.105861 23.462799
-3.71628 0.105998 23.4629
-3.6877899 0.10497 23.459101
-3.65382 0.108708 23.4573
-3.6319101 0.103042 23.459299
-2.62029 0.118704 21.009501
-2.59389 0.120565 21.024799
-2.56077 0.122623 20.990299
-2.5329399 0.122687 20.977301
-2.5070601 0.121614 20.968399
-2.47543 0.122403 20.931801
-2.4477301 0.122455 20.9188
-2.42258 0.121503 20.9163
-2.3938899 0.122337 20.9027
-2.36484 0.122584 20.879801
-2.3387599 0.122021 20.8731
-2.3122101 0.121654 20.8643
-2.2833099 0.12225 20.845301
-2.25384 0.123105 20.8237
-2.2273901 0.122728 20.8148
-2.20239 0.121746 20.8123
-2.17627 0.120808 20.7999
-2.14871 0.121338 20.790701
-2.11938 0.12257 20.772699
-2.09395 0.122281 20.773399
-2.0674901 0.122156 20.7663
-2.0410399 0.122023 20.7591
-2.01614 0.121011 20.756399
-1.98908 0.12089 20.7432
-1.96583 0.119679 20.754101
-1.9405299 0.120048 20.764099
-1.91581 0.120504 20.781
-1.8899601 0.120492 20.7813
-1.86505 0.119447 20.778299
-1.83921 0.119423 20.7785
-1.81358 0.120091 20.7897
-1.78899 0.12019 20.805099
-1.76352 0.119833 20.8055
-1.7421 0.118447 20.837
-1.71684 0.119886 20.864201
-1.6922801 0.118919 20.867399
-1.66633 0.118857 20.867399
-1.64231 0.119362 20.897699
-1.61787 0.119091 20.913099
-1.59457 0.118513 20.938299
-1.57023 0.118729 20.962999
-1.54746 0.117959 20.993601
-1.5213701 0.119143 21.0124
-1.4999 0.118581 21.0648
-1.47701 0.118826 21.1127
-1.4572901 0.11723 21.175501
-1.44006 0.114773 21.260599
-1.3347501 0.144549 21.028999
1.91271 0.0978311 23.1772
1.93999 0.098317496 23.146799
1.9672 0.098808698 23.116501
1.99418 0.097872801 23.103399
2.0209601 0.098551199 23.0669
2.0475299 0.097813703 23.047501
2.0743799 0.0968723 23.0345
2.1005399 0.096324399 23.008801
2.1266301 0.095779903 22.9832
2.1533501 0.094836898 22.9702
2.1812401 0.094642498 22.961201
2.20994 0.096103497 22.941601
2.2399499 0.097389199 22.938601
2.2669799 0.096478596 22.9298
2.29444 0.095607899 22.924999
2.3202701 0.093627103 22.9163
2.3476901 0.092747398 22.911501
2.3780999 0.092965499 22.9249
2.40801 0.093402699 22.9305
2.43379 0.091405198 22.9217
2.4647801 0.092270203 22.9331
2.49579 0.0931326 22.9445
2.52318 0.092225701 22.939501
2.5536799 0.092410602 22.9527
2.5836301 0.092816897 22.9582
2.6139801 0.0929906 22.969601
2.6454301 0.092036098 23.001699
2.6760001 0.090662397 23.0294
2.7074299 0.091235101 23.0452
2.74067 0.091720201 23.0772
2.77356 0.0907031 23.1199
2.80932 0.090208098 23.181101
2.8552699 0.092261203 23.3036
2.8919201 0.0911991 23.374201
-4.00456 0.128205 23.564899
-3.97592 0.127212 23.561199
-3.93279 0.13059799 23.504999
-3.9042301 0.1296 23.5014
-3.8735199 0.129567 23.4921
-3.8404901 0.130294 23.474501
-3.8043599 0.13252801 23.448999
-3.7756801 0.134664 23.466999
-3.7478499 0.134055 23.4702
-3.71858 0.134192 23.4704
-3.6900899 0.133157 23.4666
-3.66082 0.13327999 23.4667
-2.6208501 0.146844 21.0326
-2.5938599 0.146781 21.0256
-2.5614901 0.14804301 20.989799
-2.5329101 0.148846 20.9781
-2.5048399 0.148522 20.9594
-2.4760301 0.14803299 20.933001
-2.4493501 0.14767399 20.9242
-2.4242001 0.146718 20.921801
-2.39379 0.147367 20.892599
-2.3654399 0.148151 20.881001
-2.33887 0.147778 20.8722
-2.3103001 0.14858299 20.8587
-2.2804301 0.149187 20.8316
-2.2539599 0.14880399 20.822901
-2.22896 0.14782301 20.820299
-2.2028 0.146873 20.808001
-2.1708801 0.149205 20.7799
-2.1459401 0.148213 20.7773
-2.1196001 0.14781 20.7684
-2.0948501 0.147166 20.771299
-2.06902 0.14719 20.771799
-2.0395 0.148157 20.748501
-2.0146101 0.14714199 20.7458
-1.98746 0.14711601 20.7328
-1.96303 0.14652701 20.7393
-1.93946 0.144989 20.7432
-1.91201 0.14699399 20.751101
-1.88706 0.147081 20.7612
-1.86298 0.146255 20.7691
-1.83795 0.14562599 20.77
-1.81426 0.14537799 20.789801
-1.78941 0.145825 20.806601
-1.76355 0.145788 20.8067
-1.73906 0.144835 20.809999
-1.71313 0.14634401 20.83
-1.6902699 0.14547899 20.8531
-1.66517 0.145173 20.858999
-1.64122 0.144875 20.878599
-1.61519 0.146319 20.8985
-1.59161 0.14431299 20.899599
-1.56813 0.144749 20.936899
-1.5446399 0.14445999 20.9645
-1.5193599 0.146009 20.9981
-1.49738 0.144572 21.0296
-1.47366 0.145244 21.072001
-1.45231 0.145555 21.141001
-1.4359 0.141965 21.216801
-1.35315 0.158722 21.081301
1.9127001 0.125726 23.194201
1.94098 0.128603 23.1422
1.96658 0.12654801 23.126499
1.9937299 0.126993 23.0963
2.0208099 0.127443 23.066099
2.0469401 0.12547299 23.057501
2.0739 0.125911 23.027399
2.10005 0.125338 23.001801
2.1268101 0.124381 22.9888
2.1528101 0.122404 22.980101
2.18121 0.123808 22.957001
2.2114301 0.12586901 22.946699
2.2405901 0.125989 22.9484
2.26808 0.12511601 22.943701
2.2939501 0.123126 22.934999
2.3197999 0.121133 22.9263
2.34971 0.121586 22.9319
2.38099 0.122849 22.9424
2.4082601 0.121939 22.936199
2.4352801 0.120687 22.9314
2.46596 0.121271 22.9429
2.4960599 0.121687 22.9503
2.5230701 0.120421 22.9454
2.5532999 0.119961 22.962799
2.5832601 0.120375 22.9683
2.61323 0.120782 22.973801
2.6454599 0.122076 22.9909
2.67642 0.121702 23.012699
2.7087801 0.120006 23.059601
2.7395 0.120171 23.072701
2.77263 0.119201 23.1175
2.8134999 0.121645 23.195801
2.85022 0.120796 23.2679
2.89483 0.122483 23.381599
-4.0032601 0.155999 23.5481
-3.9709799 0.15767901 23.5422
-3.9351299 0.158843 23.5124
-3.9065599 0.157838 23.508801
-3.8692901 0.160126 23.478001
-3.8373101 0.160437 23.463499
-3.8065801 0.162297 23.467199
-3.7786601 0.163288 23.4814
-3.7493899 0.163431 23.4816
-3.71877 0.163359 23.4722
-3.69028 0.162319 23.468399
-3.65873 0.163808 23.464701
-2.6224999 0.172199 21.038099
-2.5919399 0.173207 21.014299
-2.56146 0.174217 20.990601
-2.5310299 0.17521501 20.9669
-2.50227 0.17502201 20.944201
-2.47612 0.17385501 20.9321
-2.4473701 0.17466401 20.918501
-2.42184 0.17347001 20.910601
-2.3921299 0.174292 20.888901
-2.36554 0.173912 20.8801
-2.3369401 0.174705 20.8666
-2.31023 0.173546 20.8486
-2.28054 0.174889 20.830799
-2.2555301 0.17391001 20.8283
-2.2290299 0.172031 20.803699
-2.1984999 0.173013 20.773899
-2.17171 0.173446 20.770399
-2.14607 0.17385 20.776501
-2.11745 0.174381 20.757601
-2.09255 0.17337701 20.754999
-2.0634201 0.17415801 20.7335
-2.03846 0.173547 20.7344
-2.0130799 0.17324699 20.7351
-1.9867001 0.173094 20.728001
-1.96185 0.172067 20.725201
-1.93608 0.172067 20.725599
-1.9114 0.172564 20.742599
-1.8861099 0.172948 20.752501
-1.86072 0.172616 20.753
-1.83585 0.171561 20.750099
-1.81383 0.16984899 20.768299
-1.78692 0.172895 20.795601
-1.76148 0.17224699 20.792299
-1.7381099 0.17137501 20.8083
-1.71345 0.171492 20.8237
-1.68876 0.17160299 20.839001
-1.66327 0.171224 20.839199
-1.6398799 0.170298 20.856001
-1.61369 0.17219301 20.879801
-1.59023 0.171259 20.896601
-1.56569 0.170294 20.9009
-1.54145 0.171528 20.940399
-1.5175101 0.17078701 20.9561
-1.49459 0.17043801 20.990801
-1.47123 0.170727 21.0305
-1.44937 0.17053699 21.083401
-1.42946 0.170919 21.172199
-1.40291 0.174695 21.2293
1.91424 0.156886 23.1847
1.94034 0.15638 23.152201
1.9675601 0.156791 23.121901
1.9932801 0.156096 23.0891
2.02021 0.155132 23.076
2.04723 0.155536 23.0459
2.0734301 0.15493301 23.0203
2.10023 0.153963 23.007299
2.1270001 0.152987 22.994301
2.1547101 0.153357 22.975599
2.1830399 0.154117 22.959499
2.2132299 0.15518799 22.9608
2.2400899 0.153543 22.9583
2.26758 0.15266301 22.9536
2.2941699 0.151669 22.940599
2.3212399 0.150427 22.9359
2.3509099 0.15196 22.926701
2.38082 0.152417 22.9324
2.40769 0.150857 22.929399
2.43455 0.149294 22.9265
2.4643199 0.150236 22.9252
2.49547 0.15062401 22.9436
2.5225799 0.14827099 22.9513
2.5534101 0.148551 22.9669
2.58289 0.14795101 22.9785
2.6140001 0.148818 22.989799
2.6451199 0.149681 23.001101
2.6773 0.15030301 23.0243
2.70859 0.148653 23.061399
2.7392001 0.14787 23.083
2.77457 0.148762 23.129999
2.8125601 0.15022901 23.193399
2.84903 0.14946599 23.263399
2.8958299 0.151355 23.395399
-4.0092702 0.18483999 23.5795
-3.9696701 0.187034 23.5364
-3.9386599 0.187278 23.5277
-3.9067199 0.18704601 23.510401
-3.8659501 0.19093201 23.4709
-3.8373799 0.191522 23.478201
-3.8088 0.19210599 23.4855
-3.7809601 0.19150899 23.4888
-3.7516899 0.191651 23.489
-3.7196901 0.191672 23.4722
-3.69119 0.190626 23.468399
-3.65927 0.190641 23.451599
-2.5942099 0.196261 21.003599
-2.5630901 0.199524 20.996
-2.5300701 0.201456 20.961599
-2.5016401 0.201314 20.9422
-2.47773 0.199092 20.937401
-2.4472201 0.19967701 20.908199
-2.4188299 0.200442 20.8967
-2.39222 0.200055 20.888
-2.36713 0.199086 20.8855
-2.3368499 0.199659 20.856501
-2.3071201 0.200985 20.8386
-2.2827699 0.19859201 20.8274
-2.2555699 0.1981 20.8116
-2.2276001 0.19754501 20.788401
-2.19888 0.198073 20.7696
-2.17396 0.197078 20.767
-2.14762 0.196657 20.7582
-2.1184199 0.197418 20.736799
-2.0909901 0.197917 20.727699
-2.06355 0.199737 20.7327
-2.0386901 0.198722 20.730101
-2.0139799 0.198071 20.732901
-1.98821 0.198084 20.7334
-1.9633501 0.197052 20.7306
-1.93757 0.197053 20.731001
-1.91205 0.197785 20.742399
-1.88652 0.198514 20.753799
-1.86072 0.19850101 20.754101
-1.83586 0.197442 20.7512
-1.81006 0.19741701 20.751499
-1.78527 0.19790401 20.768299
-1.7599 0.198272 20.7782
-1.73651 0.19704001 20.7889
-1.71304 0.19594499 20.8009
-1.6882 0.19692899 20.8253
-1.66185 0.198085 20.836201
-1.63836 0.196104 20.8374
-1.61236 0.19721401 20.851999
-1.5884 0.197329 20.8769
-1.564 0.196412 20.883101
-1.5406899 0.195913 20.908199
-1.5143501 0.197817 20.931999
-1.49333 0.195852 20.9655
-1.46851 0.197198 21.0014
-1.44547 0.19687399 21.0362
-1.42439 0.197382 21.1094
-1.40215 0.197457 21.163601
1.92053 0.191741 23.184
1.9414901 0.185569 23.1654
1.96919 0.187132 23.1243
1.99409 0.18493199 23.101601
2.01894 0.182733 23.078899
2.04708 0.18439101 23.045099
2.07428 0.183685 23.032801
2.1003499 0.18168899 23.024099
2.1285901 0.182258 23.008101
2.15399 0.182422 22.9643
2.1867499 0.18476599 22.9793
2.21364 0.18312 22.9769
2.2411699 0.182238 22.9722
2.2677901 0.18123101 22.9592
2.2932999 0.17939501 22.944201
2.3212099 0.180159 22.924801
2.3519499 0.181647 22.927401
2.38133 0.18178099 22.9314
2.40713 0.179757 22.922701
2.4380801 0.181013 22.93
2.46788 0.18081699 22.941601
2.4953201 0.17936499 22.9431
2.5252199 0.17963301 22.950199
2.5560801 0.179511 22.9706
2.5843401 0.177615 22.9841
2.6143601 0.177091 22.999901
2.6447699 0.177304 23.011299
2.6770699 0.178635 23.0285
2.7085299 0.17825501 23.0548
2.74156 0.176952 23.103901
2.7765 0.178348 23.1425
2.8109601 0.17794099 23.193399
2.8480101 0.17731901 23.268
2.8951099 0.180353 23.393299
-4.0095201 0.211391 23.563499
-3.97053 0.216712 23.544901
-3.93975 0.216984 23.537901
-3.90242 0.218511 23.502399
-3.8682499 0.219143 23.478201
-3.83968 0.219741 23.4855
-3.81178 0.22077399 23.4998
-3.78036 0.221872 23.4944
-3.7518499 0.220833 23.4907
-3.7219601 0.219882 23.4795
-3.6904399 0.220423 23.469299
-3.66081 0.219355 23.458599
-2.7567599 0.26510999 21.2381
-2.5899601 0.225785 21.003599
-2.56303 0.225694 20.9967
-2.5307701 0.226824 20.960899
-2.5032499 0.226566 20.9475
-2.4757199 0.22607499 20.931601
-2.4455299 0.226601 20.9044
-2.4189 0.226208 20.8957
-2.3938 0.22524101 20.893299
-2.36479 0.225758 20.8743
-2.3352001 0.226521 20.852699
-2.3086901 0.22611301 20.844
-2.2843299 0.223703 20.8328
-2.2518201 0.226045 20.801901
-2.22662 0.222844 20.775101
-2.1995699 0.22287899 20.7654
-2.1719601 0.223207 20.753599
-2.1452401 0.222617 20.7397
-2.11608 0.223546 20.7204
-2.0913999 0.222913 20.723301
-2.06515 0.222471 20.7146
-2.03584 0.224784 20.708
-2.01174 0.224191 20.7167
-1.98516 0.224521 20.7131
-1.96118 0.22375 20.721201
-1.9362299 0.223149 20.7223
-1.91106 0.22247601 20.7206
-1.88687 0.223168 20.744101
-1.86072 0.22438 20.755199
-1.83585 0.223317 20.7523
-1.81154 0.222431 20.757
-1.78593 0.22315 20.7682
-1.7603101 0.223866 20.779499
-1.73449 0.22382601 20.779699
-1.7110699 0.221867 20.781
-1.68479 0.22304399 20.791901
-1.65994 0.224049 20.816299
-1.6364 0.222948 20.8283
-1.61131 0.22227 20.829
-1.5873801 0.22241899 20.8538
-1.56134 0.22353899 20.868401
-1.5378 0.221527 20.869499
-1.51061 0.224087 20.8915
-1.48938 0.22276001 20.930099
-1.46548 0.223544 20.968
-1.4445601 0.222431 21.0161
-1.42054 0.223682 21.062
-1.4026099 0.22250099 21.150299
-1.37736 0.22129799 21.146601
1.91328 0.214073 23.186399
1.94086 0.213385 23.1754
1.97149 0.21757901 23.133801
1.99348 0.21267401 23.1115
2.0202799 0.21223 23.088499
2.0494001 0.21474101 23.054501
2.0755 0.21273801 23.0459
2.1015799 0.21073 23.0373
2.13094 0.21255501 23.0175
2.1602399 0.21438099 22.997801
2.18715 0.212736 22.995399
2.21471 0.211851 22.990801
2.24138 0.21083 22.9778
2.2669301 0.208977 22.962799
2.2931499 0.208122 22.9436
2.325 0.211126 22.9401
2.35414 0.211236 22.9417
2.3815701 0.21032999 22.937
2.4073801 0.208295 22.928301
2.43837 0.209223 22.9398
2.4677601 0.209024 22.947399
2.4951601 0.208101 22.9426
2.52548 0.208349 22.9541
2.5554399 0.207858 22.9699
2.5843 0.207105 22.9774
2.6154499 0.206048 23.0098
2.64609 0.20607001 23.025499
2.6767499 0.206297 23.0387
2.7121601 0.208892 23.0716
2.7429299 0.20583101 23.1182
2.77425 0.2067 23.129601
2.81111 0.20618001 23.203899
2.84729 0.206866 23.2589
2.8928199 0.210425 23.366899
-4.0102701 0.243531 23.5874
-3.97067 0.246289 23.5487
-3.9372001 0.24828 23.5385
-3.8989799 0.25165099 23.510799
-3.87044 0.25063199 23.507299
-3.8426001 0.25005499 23.5107
-3.8111701 0.25115299 23.505301
-3.78125 0.25019899 23.494301
-3.7492399 0.25018501 23.477501
-3.7172599 0.25017101 23.4608
-3.6886001 0.25167799 23.474199
-3.6602099 0.24969099 23.464199
-2.7611301 0.29036 21.257999
-2.5915899 0.251109 21.0089
-2.56111 0.25202799 20.9853
-2.53071 0.252951 20.961599
-2.5048599 0.251825 20.952801
-2.4743099 0.25159901 20.916901
-2.44559 0.25237 20.9034
-2.42048 0.251405 20.900999
-2.3914399 0.251903 20.882099
-2.36181 0.252644 20.860399
-2.3352799 0.25222901 20.8517
-2.31025 0.251248 20.8493
-2.2836599 0.249283 20.824699
-2.2518301 0.25015399 20.785101
-2.2260301 0.248914 20.7731
-2.19786 0.24861 20.7507
-2.16978 0.248643 20.732
-2.1417899 0.249341 20.7206
-2.11694 0.24833401 20.7181
-2.089 0.248832 20.704599
-2.0618701 0.24911501 20.695601
-2.0350699 0.249639 20.691999
-2.00931 0.249835 20.694099
-1.98413 0.25028101 20.704201
-1.95881 0.249974 20.704901
-1.934 0.248934 20.7022
-1.90817 0.2489 20.7013
-1.88255 0.25054801 20.7216
-1.85857 0.25020599 20.7351
-1.83442 0.24938001 20.741699
-1.8104 0.248105 20.744499
-1.78541 0.247471 20.745399
-1.75889 0.24861901 20.752399
-1.73333 0.249457 20.765699
-1.70962 0.248638 20.777901
-1.6842099 0.24827 20.7782
-1.65956 0.248432 20.793501
-1.63489 0.248588 20.808901
-1.60944 0.248202 20.809099
-1.58606 0.247326 20.825899
-1.5588 0.24930701 20.8377
-1.53449 0.24926899 20.8561
-1.5109 0.24800301 20.8666
-1.4877 0.24810401 20.9011
-1.4637001 0.248124 20.9259
-1.44075 0.247887 20.9606
-1.41874 0.248105 21.0144
-1.3981 0.24901199 21.0972
-1.37729 0.24991 21.180401
1.92053 0.247697 23.2181
1.9460599 0.24658599 23.184401
1.97087 0.24537 23.1437
1.99466 0.241834 23.124701
2.0213201 0.240977 23.105301
2.05127 0.243955 23.074699
2.0774 0.24193899 23.066099
2.1038001 0.241515 23.039101
2.13344 0.243341 23.022699
2.16062 0.242388 23.013901
2.18821 0.241501 23.0093
2.21419 0.239473 23.000601
2.2405 0.238598 22.9813
2.2671199 0.23887999 22.9515
2.2970099 0.239208 22.958799
2.3278301 0.240844 22.9603
2.3552899 0.239935 22.955601
2.38113 0.237891 22.946899
2.40855 0.236974 22.9422
2.4379499 0.23678701 22.9498
2.4689801 0.237729 22.9613
2.4963901 0.236797 22.956499
2.5269101 0.23707099 22.9699
2.55688 0.237519 22.9755
2.5858099 0.236441 22.9872
2.6175699 0.23654599 23.013599
2.6460199 0.234378 23.031401
2.6760001 0.23416799 23.0429
2.7081599 0.23553 23.058399
2.74119 0.23434401 23.107599
2.7739699 0.234488 23.1399
2.8106501 0.236017 23.1931
2.8474801 0.237553 23.246401
2.88292 0.23655599 23.310699
2.92574 0.24109299 23.385201
-4.0082598 0.27179101 23.570601
-3.97297 0.27790299 23.577801
-3.9349 0.27951401 23.540001
-3.9012799 0.27991799 23.518
-3.87274 0.27889299 23.5145
-3.84199 0.28044799 23.516199
-3.8120501 0.279486 23.505199
-3.78 0.279457 23.4884
-3.7479999 0.27942699 23.471701
-3.71805 0.27976501 23.4694
-3.6888001 0.28142101 23.480301
-2.5932 0.27643901 21.0142
-2.5601101 0.27825701 20.979799
-2.53231 0.278227 20.9669
-2.5026 0.27863401 20.943701
-2.47104 0.279818 20.9133
-2.44717 0.27757701 20.9086
-2.4180901 0.27805701 20.8897
-2.3884201 0.27877501 20.868099
-2.3618701 0.27835399 20.8594
-2.3368299 0.277374 20.857
-2.30793 0.27783999 20.8381
-2.27988 0.27721199 20.814899
-2.25337 0.275217 20.7904
-2.22367 0.27510399 20.758101
-2.1961701 0.27464399 20.7397
-2.16816 0.275332 20.7283
-2.1401401 0.275336 20.7097
-2.1144099 0.274519 20.7015
-2.0873599 0.27432799 20.688499
-2.0610199 0.274158 20.681601
-2.03532 0.27418399 20.6821
-2.0099199 0.27498299 20.693701
-1.98435 0.275388 20.6998
-1.9587801 0.27579001 20.705799
-1.93397 0.27474499 20.7031
-1.90824 0.27474499 20.703501
-1.88275 0.27551499 20.715
-1.8571301 0.27589399 20.7209
-1.83243 0.27521601 20.7236
-1.8081599 0.274342 20.7283
-1.78334 0.27326399 20.725401
-1.75613 0.274086 20.7213
-1.73098 0.27569699 20.7474
-1.7076401 0.274472 20.7579
-1.68264 0.27381599 20.758801
-1.65783 0.27310601 20.761
-1.63328 0.27401701 20.786501
-1.60605 0.275444 20.7904
-1.5812 0.27471501 20.7925
-1.5577101 0.27348 20.803101
-1.53351 0.273875 20.827801
-1.50761 0.27451199 20.837
-1.4855 0.27322099 20.864
-1.45955 0.27452901 20.882799
-1.43954 0.27316201 20.9352
-1.41408 0.27433401 20.9597
-1.3926001 0.274344 21.016899
-1.3738 0.27338099 21.094999
-1.34939 0.27542201 21.149401
1.91861 0.275327 23.2138
1.9473799 0.276934 23.183201
1.97269 0.27471599 23.164
1.9998699 0.27497101 23.1336
2.0269899 0.27523699 23.1035
2.05316 0.273213 23.0949
2.0792999 0.271184 23.086201
2.1091499 0.27410799 23.0557
2.1356299 0.27322099 23.0364
2.16167 0.271189 23.0278
2.18768 0.26915199 23.0191
2.21404 0.268255 22.9998
2.24 0.266213 22.991199
2.2680099 0.26691601 22.971701
2.29795 0.26859501 22.9625
2.3273599 0.26844001 22.9702
2.35483 0.267526 22.9655
2.3806801 0.26546901 22.9568
2.41063 0.26594999 22.962601
2.4411299 0.266258 22.976101
2.46856 0.26532501 22.9713
2.49599 0.26438701 22.966499
2.52652 0.264678 22.9799
2.5565 0.26513401 22.9855
2.5864899 0.265582 22.9911
2.61693 0.264934 23.012899
2.64676 0.26371601 23.0343
2.6803899 0.264218 23.073601
2.71049 0.264644 23.0791
2.7413199 0.26353601 23.107201
2.7737 0.26422599 23.1306
2.8106101 0.26621699 23.182199
2.8462701 0.26673999 23.2356
2.8857601 0.26958299 23.2995
2.9253299 0.27056301 23.3808
-4.0338202 0.31017199 23.611099
-4.0026999 0.30871299 23.591499
-3.9695301 0.30876499 23.570499
-3.93209 0.31088299 23.5397
-3.9035399 0.30985999 23.5362
-3.87498 0.30882901 23.5327
-3.84285 0.308788 23.516001
-3.80722 0.30974299 23.4862
-3.7787299 0.308698 23.482599
-3.74788 0.30886501 23.4739
-3.71806 0.31090701 23.4841
-3.69011 0.311968 23.498301
-2.9456 0.39660001 21.5457
-2.59481 0.30177501 21.019501
-2.56078 0.303626 20.979
-2.5322299 0.30434901 20.967501
-2.49998 0.30499801 20.9282
-2.47261 0.30504 20.918501
-2.4451499 0.30448899 20.9027
-2.41504 0.30491501 20.875601
-2.3884799 0.304488 20.867001
-2.36343 0.30351001 20.864599
-2.3344901 0.303956 20.845699
-2.3064001 0.30330399 20.8225
-2.2791901 0.30274001 20.806801
-2.25401 0.300015 20.785999
-2.2225699 0.30065399 20.747299
-2.19454 0.30133301 20.736
-2.16557 0.30150199 20.7117
-2.1384799 0.301303 20.6987
-2.1121199 0.30113301 20.691799
-2.0857699 0.30095601 20.6849
-2.0609701 0.299936 20.682301
-2.03389 0.30017099 20.673201
-2.00878 0.29951701 20.6717
-1.98155 0.301323 20.6777
-1.95741 0.301278 20.6915
-1.9318 0.30136201 20.6936
-1.90701 0.30030999 20.690901
-1.8821 0.299705 20.691999
-1.85857 0.29961699 20.711901
-1.83389 0.300203 20.728901
-1.8066601 0.30102801 20.724899
-1.78186 0.29994699 20.722099
-1.75651 0.29959899 20.7225
-1.73199 0.29981899 20.738001
-1.7064 0.30056599 20.7493
-1.68063 0.30052 20.7495
-1.65581 0.29940999 20.7465
-1.63139 0.29846299 20.749701
-1.60515 0.29988 20.763399
-1.57973 0.30025899 20.7731
-1.55627 0.299034 20.783701
-1.53237 0.298628 20.800501
-1.50427 0.30041701 20.7999
-1.47944 0.30061701 20.8151
-1.4577 0.29963899 20.8501
-1.43255 0.300677 20.874399
-1.41063 0.30103299 20.9279
-1.3890899 0.30031499 20.9725
-1.36666 0.30125299 21.031601
-1.3471 0.303161 21.1422
1.91873 0.30339101 23.2323
1.94821 0.306142 23.1929
1.97386 0.303967 23.1772
2.00034 0.30362201 23.1455
2.0281899 0.304416 23.1166
2.0550399 0.30251801 23.115101
2.08163 0.30160499 23.0956
2.1085899 0.301824 23.0655
2.1350801 0.30091301 23.0462
2.16113 0.29886901 23.0376
2.18715 0.29682001 23.028999
2.2135201 0.29589999 23.0096
2.2402 0.296114 22.9797
2.2703199 0.29711199 22.9811
2.3009801 0.29811499 22.988701
2.32849 0.297198 22.9841
2.3543701 0.29513299 22.975401
2.38184 0.29420701 22.970699
2.4112699 0.29404399 22.9783
2.4407001 0.29387701 22.986
2.4681499 0.29293799 22.981199
2.49559 0.29199401 22.9764
2.5286901 0.29371801 23.000401
2.5561199 0.29276499 22.995501
2.5861299 0.293221 23.0012
2.6164601 0.29287699 23.018801
2.64713 0.29299101 23.0341
2.67874 0.29309201 23.058599
2.7116399 0.295158 23.0741
2.7432401 0.29478601 23.1024
2.7739201 0.294709 23.118099
2.8094201 0.295306 23.1714
2.8487301 0.29823101 23.2351
2.882 0.297555 23.2784
2.9152601 0.29691899 23.320101
2.9484601 0.29768899 23.346701
2.9778399 0.29530501 23.369499
-4.0367098 0.33531001 23.6003
-4.0062399 0.33731201 23.6068
-3.96661 0.33923101 23.563499
-3.9343901 0.33919001 23.5469
-3.9058199 0.33816099 23.5434
-3.8736601 0.33810401 23.526699
-3.83798 0.339028 23.496901
-3.80948 0.33798301 23.493299
-3.7795899 0.33699101 23.482401
-3.7488899 0.338534 23.483999
-3.7203 0.33914399 23.491301
-3.6923499 0.340222 23.505501
-2.9345801 0.42556301 21.4979
-2.5631001 0.32633999 20.9671
-2.5302999 0.33059201 20.955999
-2.49998 0.33142701 20.932501
-2.47419 0.33026701 20.9237
-2.4426799 0.330704 20.8873
-2.4150801 0.33063 20.8745
-2.3900299 0.32965401 20.872101
-2.36373 0.328623 20.860001
-2.33254 0.328392 20.817699
-2.30634 0.32735601 20.8055
-2.2799101 0.32690299 20.7969
-2.25161 0.32617399 20.7708
-2.2209201 0.327342 20.7435
-2.18963 0.32827699 20.7087
-2.16324 0.328109 20.701799
-2.1368599 0.327932 20.695
-2.1098199 0.32771099 20.681999
-2.08413 0.326873 20.673901
-2.05847 0.326031 20.6658
-2.0315101 0.32580301 20.6528
-2.0043399 0.326664 20.649
-1.97984 0.32730699 20.6663
-1.95481 0.32736 20.6728
-1.92993 0.32673901 20.6738
-1.90466 0.32642701 20.6745
-1.8799 0.325369 20.671801
-1.85631 0.325165 20.6894
-1.8285201 0.32703599 20.691299
-1.8045501 0.32673299 20.7048
-1.7796299 0.32610601 20.705799
-1.75485 0.32501701 20.702999
-1.7301199 0.324334 20.705299
-1.70556 0.324606 20.720699
-1.67871 0.325912 20.725901
-1.65381 0.32607701 20.737301
-1.62902 0.32495999 20.7342
-1.60405 0.32429299 20.735001
-1.58023 0.32415599 20.754601
-1.5503401 0.327115 20.749201
-1.52618 0.32628101 20.7568
-1.5032901 0.32431901 20.764
-1.47799 0.32524201 20.7826
-1.45452 0.32533401 20.811501
-1.4305201 0.32492301 20.828199
-1.40458 0.326269 20.847
-1.38499 0.32474899 20.901501
-1.36388 0.32567599 20.974199
-1.3437001 0.326377 21.056999
-1.3215899 0.32628801 21.1071
1.9184999 0.33221501 23.2335
1.94759 0.33402401 23.202801
1.97438 0.33309501 23.183201
2.00158 0.33328399 23.152901
2.02826 0.33235699 23.133499
2.05446 0.33030599 23.124901
2.0810599 0.32937101 23.105499
2.1080301 0.329555 23.075399
2.1345301 0.32862201 23.056
2.1605899 0.326565 23.0474
2.18663 0.324503 23.038799
2.2130101 0.32356 23.0194
2.24489 0.327207 23.0065
2.27457 0.32782701 23.0072
2.30211 0.32690799 23.0026
2.3280201 0.32483399 22.9939
2.35391 0.32275599 22.985201
2.3849699 0.32375699 22.996901
2.4144199 0.32360399 23.004601
2.4419 0.32266301 22.999901
2.46966 0.32234299 22.9909
2.49968 0.32277301 22.9974
2.5295701 0.32353801 22.9986
2.5564799 0.3224 22.9904
2.5887799 0.32386899 23.0084
2.61869 0.32331499 23.0243
2.6479599 0.32307801 23.029699
2.6804199 0.324229 23.0516
2.7116399 0.32516599 23.063101
2.74227 0.32410401 23.089701
2.77232 0.322303 23.117901
2.8118701 0.32670799 23.170799
2.845 0.32609501 23.214001
2.87691 0.32572499 23.242399
2.9102199 0.32588401 23.2775
2.9433701 0.325914 23.3118
2.97773 0.32543299 23.361
3.00804 0.324554 23.3773
-4.0396199 0.363801 23.611401
-4.00634 0.36661401 23.608101
-3.96525 0.368534 23.5574
-3.9366701 0.367506 23.554001
-3.90592 0.367387 23.5448
-3.87234 0.36735901 23.5207
-3.84024 0.36728299 23.504
-3.8103299 0.366283 23.493099
-3.77895 0.36735401 23.487801
-3.75103 0.36846101 23.5021
-3.7230999 0.36956301 23.516399
-3.69383 0.36969599 23.516701
-3.6619899 0.36789799 23.489
-2.7697899 0.41012701 21.265301
-2.56352 0.35258099 20.9723
-2.5292799 0.35675001 20.9505
-2.50088 0.35646999 20.931101
-2.47192 0.35699299 20.914499
-2.4423001 0.35529599 20.872999
-2.4172499 0.354321 20.8708
-2.3913 0.352386 20.8533
-2.3617201 0.35302499 20.8318
-2.33283 0.35343701 20.813
-2.3078599 0.35244501 20.810699
-2.2780499 0.35222101 20.778299
-2.2504799 0.351702 20.76
-2.2191899 0.353306 20.732401
-2.1895499 0.354083 20.709299
-2.1615601 0.354258 20.693199
-2.13518 0.35383999 20.683901
-2.10726 0.35377899 20.6654
-2.08249 0.35276201 20.662901
-2.0562 0.35257 20.656
-2.03145 0.351542 20.6535
-2.0067 0.350508 20.650999
-1.98104 0.35052899 20.6516
-1.95567 0.35135999 20.6632
-1.93028 0.35218799 20.674801
-1.90311 0.35302401 20.6709
-1.87836 0.351964 20.668301
-1.8551 0.35006401 20.669901
-1.8283499 0.35057101 20.666201
-1.80396 0.35084999 20.681801
-1.77847 0.351643 20.693199
-1.75278 0.35161701 20.6936
-1.72802 0.350521 20.690701
-1.70233 0.350483 20.691
-1.67678 0.35125199 20.702299
-1.65121 0.35201699 20.7136
-1.62692 0.35112199 20.718201
-1.60215 0.349998 20.715099
-1.57739 0.348867 20.712099
-1.55027 0.34964201 20.708
-1.52475 0.35172901 20.737499
-1.49941 0.35133001 20.7377
-1.4765199 0.349783 20.750099
-1.45174 0.350012 20.7652
-1.42371 0.351789 20.7647
-1.4051501 0.34932801 20.8153
-1.3780299 0.351648 20.8335
-1.35809 0.35147199 20.902201
-1.33619 0.35294601 20.9729
-1.31997 0.350521 21.0592
-1.29327 0.352557 21.0832
1.91669 0.35906801 23.2435
1.94696 0.36192301 23.212601
1.97263 0.35970601 23.196899
2.0009799 0.36112499 23.1628
2.0276699 0.360174 23.143299
2.05388 0.35811099 23.134701
2.08092 0.358262 23.1045
2.10747 0.35730299 23.0851
2.13398 0.35634699 23.0658
2.1600499 0.35427701 23.057199
2.1875501 0.35354099 23.0483
2.2179201 0.35546899 23.039101
2.2478299 0.35668999 23.034201
2.2756801 0.356655 23.021099
2.30163 0.354572 23.0124
2.3275499 0.35248601 23.0037
2.3550701 0.351551 22.999001
2.3857601 0.35255301 23.006599
2.41483 0.35227501 23.0116
2.4422801 0.35228801 22.9946
2.4716799 0.353275 22.987801
2.50037 0.35276201 22.991301
2.52982 0.35367 22.9863
2.5599899 0.35415 22.993799
2.59079 0.35483199 23.005501
2.6180799 0.35225499 23.0175
2.65026 0.35339299 23.0373
2.6807401 0.35293299 23.0574
2.7100401 0.35269099 23.062799
2.7409101 0.35270399 23.080601
2.77495 0.35397699 23.115299
2.8062699 0.35371301 23.1392
2.83743 0.35240501 23.1719
2.8731599 0.35434899 23.2131
2.9057701 0.355106 23.2367
2.93539 0.353816 23.252899
2.97247 0.35524699 23.308901
3.0049601 0.355959 23.329901
3.0411699 0.35447401 23.404499
3.0692899 0.353697 23.4
-4.0405998 0.389265 23.5931
-4.0034699 0.39599001 23.5944
-3.96752 0.39686501 23.564501
-3.93894 0.39583099 23.5611
-3.9031301 0.39668801 23.5312
-3.8710001 0.39659801 23.514601
-3.8410699 0.39558899 23.5037
-3.80967 0.39666 23.4984
-3.7818501 0.396088 23.5019
-3.75318 0.39842701 23.520201
-3.7253301 0.397843 23.5236
-3.6960499 0.397975 23.523899
-2.92136 0.48569 21.476801
-2.77075 0.43780699 21.2827
-2.5638499 0.38036299 20.989901
-2.5299301 0.382065 20.9496
-2.50053 0.38279301 20.9321
-2.4693 0.38325101 20.898899
-2.44384 0.38046899 20.878099
-2.4178801 0.378517 20.860701
-2.3882501 0.37913299 20.839199
-2.3593299 0.379527 20.8204
-2.33287 0.379062 20.8118
-2.3057101 0.37800699 20.7925
-2.2753 0.378564 20.762899
-2.2488101 0.37838599 20.7561
-2.2174499 0.37924299 20.721201
-2.18786 0.380225 20.7006
-2.1588399 0.379545 20.6682
-2.1340699 0.37853599 20.665899
-2.1078899 0.378048 20.657301
-2.0818801 0.37830499 20.6572
-2.05392 0.379071 20.646299
-2.0291901 0.378043 20.643801
-2.0044601 0.37700799 20.6413
-1.97962 0.37643301 20.642599
-1.95338 0.37656599 20.639299
-1.9278899 0.376993 20.645399
-1.9012001 0.37821901 20.649599
-1.87615 0.37753701 20.6481
-1.8513 0.37693399 20.6492
-1.8265899 0.37586099 20.6465
-1.80274 0.37601501 20.6653
-1.77511 0.37743199 20.663401
-1.7492501 0.37805799 20.669201
-1.72438 0.37742701 20.6702
-1.6996599 0.37632501 20.667299
-1.67633 0.375337 20.679399
-1.64996 0.37596899 20.680799
-1.62379 0.37669399 20.685301
-1.59741 0.37731799 20.6866
-1.57327 0.37647799 20.693001
-1.54854 0.37534201 20.690001
-1.52437 0.37448999 20.696301
-1.49842 0.37505999 20.701799
-1.4704601 0.37684599 20.7013
-1.4459 0.376665 20.7125
-1.42168 0.37579 20.7187
-1.39773 0.37565801 20.7381
-1.37492 0.37562299 20.7724
-1.35261 0.37579599 20.816401
-1.33163 0.376495 20.884701
-1.3119 0.377671 20.976601
-1.29285 0.37680599 21.0506
1.91898 0.38971001 23.252899
1.94699 0.390003 23.229601
1.97201 0.38759899 23.206699
2.00038 0.38898101 23.1726
2.0270801 0.388008 23.153099
2.0532999 0.385932 23.144501
2.0799201 0.38495001 23.125099
2.1098299 0.38774499 23.0945
2.1359401 0.385667 23.085899
2.16203 0.38358399 23.077299
2.18822 0.38186401 23.065001
2.2200601 0.385129 23.0557
2.2488501 0.385342 23.0502
2.2751901 0.38434801 23.030899
2.3011501 0.38225299 23.0222
2.32901 0.38193199 23.0133
2.3601501 0.383665 23.0166
2.3886199 0.38327199 23.0161
2.4156101 0.38353199 22.990299
2.44292 0.38254899 22.9842
