# .PCD v0.7 - Point Cloud Data file format
VERSION 0.7
FIELDS x y z
SIZE 4 4 4
TYPE F F F
COUNT 1 1 1
WIDTH 1679
HEIGHT 1
VIEWPOINT 0 0 0 1 0 0 0
POINTS 1679
DATA ascii
4.1468 -3.2734201 20.802
4.1825399 -3.2786601 20.8419
4.2150402 -3.28234 20.868401
0.083436497 -3.4906001 22.715401
0.11352 -3.46895 22.5856
0.14096799 -3.4538801 22.484699
0.169865 -3.4321301 22.3512
0.198489 -3.4147 22.244801
0.22592799 -3.4098899 22.2113
0.25220001 -3.39642 22.119101
0.280157 -3.3917 22.0902
0.30769101 -3.3872099 22.060699
0.336959 -3.3806601 22.0282
0.363134 -3.37989 22.014799
0.38862699 -3.3666501 21.9242
0.416585 -3.3597901 21.8848
0.44442201 -3.3513899 21.836201
0.47065201 -3.3460801 21.798201
0.49688599 -3.33619 21.7342
0.52340102 -3.335 21.7223
0.55015802 -3.3306799 21.693899
0.5765 -3.3285501 21.676201
0.60384798 -3.32581 21.6602
0.630261 -3.3226099 21.637199
0.65755802 -3.3178501 21.6101
0.68463999 -3.3141999 21.5884
0.71021003 -3.3124199 21.570101
0.73810899 -3.30723 21.544399
0.76423299 -3.30407 21.521601
0.78953099 -3.3034 21.508699
0.81544 -3.3013301 21.491301
0.841461 -3.30019 21.479601
0.868388 -3.2988601 21.471001
0.89711702 -3.2957799 21.461599
0.92216498 -3.29619 21.453899
0.95135403 -3.2919199 21.4405
0.97766203 -3.29179 21.435801
1.00396 -3.2916601 21.431101
1.0314699 -3.29248 21.436701
1.05899 -3.2932999 21.442301
1.08538 -3.2906699 21.4254
1.11166 -3.2896099 21.4161
1.1372401 -3.28544 21.3883
1.16293 -3.2843499 21.376499
1.1882401 -3.2763 21.3288
1.21342 -3.2752299 21.3155
1.23972 -3.27478 21.309999
1.2662801 -3.2672901 21.2714
1.29094 -3.2669899 21.260099
1.31646 -3.2660799 21.249599
1.34053 -3.2635 21.2251
1.36735 -3.2583599 21.200001
1.39276 -3.2574601 21.189501
1.41667 -3.2549 21.1651
1.4428999 -3.2509501 21.1439
1.4691 -3.2497001 21.135401
1.4941 -3.2476799 21.1185
1.51963 -3.2432001 21.0926
1.54453 -3.2412 21.0758
1.56883 -3.2416699 21.0681
1.59366 -3.23967 21.051399
1.61791 -3.24014 21.0436
1.64319 -3.2356901 21.0179
1.6679 -3.2337101 21.0012
1.6934299 -3.23364 20.9963
1.7186199 -3.2330999 20.988199
1.7429301 -3.2326 20.976801
1.7705899 -3.2256501 20.9501
1.79838 -3.2251699 20.9524
1.8216 -3.22698 20.9473
1.84745 -3.2244799 20.9335
1.87231 -3.2200999 20.908001
1.89626 -3.2205901 20.900299
1.91992 -3.22012 20.8874
1.9445 -3.2191401 20.8759
1.9701101 -3.2179501 20.867399
1.99483 -3.2176099 20.8592
2.0192001 -3.2146399 20.8389
2.04883 -3.2116001 20.837601
2.07339 -3.2107899 20.8272
2.0984399 -3.2105999 20.821199
2.12186 -3.21015 20.8083
2.1459 -3.20824 20.7918
2.1698899 -3.2063301 20.775299
2.19384 -3.2044301 20.758801
2.21889 -3.2044001 20.753799
2.24563 -3.2052701 20.758499
2.27179 -3.20329 20.749599
2.2967999 -3.1989601 20.727501
2.3213501 -3.1984799 20.719299
2.34547 -3.19754 20.7078
2.36956 -3.1966 20.696301
2.3926499 -3.1961801 20.6835
2.41748 -3.19664 20.680201
2.44245 -3.18997 20.649799
2.4658201 -3.19049 20.641899
2.4915299 -3.1909201 20.6416
2.5188501 -3.1905 20.643499
2.5430801 -3.18941 20.6325
2.56669 -3.18519 20.607599
2.5899501 -3.18572 20.5998
2.61408 -3.1846299 20.588699
2.6389301 -3.18431 20.583099
2.66453 -3.1847601 20.582701
2.6917601 -3.18435 20.584499
2.7162499 -3.1842101 20.5784
2.7390299 -3.1814499 20.5571
2.76177 -3.1787 20.535999
2.7853799 -3.1777999 20.5245
2.80843 -3.17834 20.5166
2.8329501 -3.17836 20.511499
2.8608999 -3.1777799 20.5152
2.8857601 -3.1749599 20.500999
2.9079399 -3.17224 20.479
2.9328599 -3.17272 20.476999
2.95628 -3.17184 20.465599
2.9796801 -3.1709599 20.4541
3.0025401 -3.17151 20.446199
3.0286601 -3.1721799 20.4487
3.0562501 -3.17046 20.447399
3.08056 -3.1695499 20.4389
3.1033599 -3.17011 20.430901
3.1272299 -3.1709599 20.4272
3.1526699 -3.16992 20.4219
3.1807301 -3.1711299 20.4321
3.20854 -3.17536 20.4519
3.2358601 -3.1752701 20.455299
3.2604001 -3.1751001 20.4501
3.2830999 -3.1756599 20.441999
3.30567 -3.1738801 20.4258
3.3294599 -3.1747401 20.422001
3.35728 -3.1712899 20.4158
3.3833101 -3.1719799 20.4181
3.40592 -3.1725399 20.41
3.4335799 -3.1721301 20.413401
3.4604001 -3.1735401 20.4203
3.48419 -3.1739099 20.415001
3.5106201 -3.17471 20.4188
3.5378699 -3.17572 20.425501
3.56146 -3.17626 20.4203
3.5869701 -3.17941 20.4289
3.61397 -3.1826301 20.4419
3.63993 -3.1829901 20.442801
3.66875 -3.18471 20.455999
3.69629 -3.18594 20.464001
3.7262199 -3.18662 20.476801
3.7538099 -3.18996 20.4914
3.78248 -3.1952801 20.5151
3.81089 -3.19648 20.525101
3.8415201 -3.2002399 20.549
3.8698201 -3.2061999 20.573299
3.90028 -3.20752 20.5889
3.93262 -3.21717 20.635201
3.9641199 -3.2206199 20.659901
3.99348 -3.22294 20.6751
4.02144 -3.2263501 20.6898
4.0513 -3.2279501 20.704
4.0803499 -3.23314 20.7267
4.1139302 -3.2379 20.760099
4.1437702 -3.24402 20.7875
4.1736102 -3.24863 20.810101
4.2091599 -3.25773 20.861099
4.2414899 -3.2613201 20.8869
-3.2885301 -3.9123499 25.3701
-3.25507 -3.9126401 25.406601
-3.2235701 -3.91258 25.397499
0.0243656 -3.4868701 22.8745
0.050110999 -3.4780099 22.799299
0.082899399 -3.44699 22.6217
0.112997 -3.42641 22.4984
0.142232 -3.4056799 22.371
0.170599 -3.3887401 22.264601
0.197327 -3.3824899 22.217699
0.226432 -3.36553 22.117599
0.25260401 -3.3638999 22.097799
0.28002399 -3.3546801 22.038401
0.30656499 -3.3513899 22.0112
0.33316201 -3.34863 21.987801
0.36109501 -3.3401401 21.9373
0.38977501 -3.33268 21.8974
0.41572201 -3.3253701 21.8449
0.44196799 -3.3166101 21.785999
0.469897 -3.31072 21.753201
0.497742 -3.3048401 21.7204
0.52513301 -3.3011701 21.6985
0.55224502 -3.2967999 21.671499
0.57718998 -3.29687 21.6595
0.60548699 -3.2920899 21.636499
0.632658 -3.28845 21.614799
0.65830499 -3.28669 21.5965
0.68507701 -3.2822499 21.568899
0.71160001 -3.27843 21.5438
0.73682803 -3.27777 21.530399
0.76478302 -3.2741201 21.5135
0.791062 -3.2701199 21.487101
0.81698799 -3.26882 21.4739
0.84208602 -3.2692399 21.466299
0.86789697 -3.26721 21.4489
0.89383298 -3.2660999 21.437201
0.91973799 -3.2650001 21.425501
0.94882798 -3.2632501 21.424999
0.97716802 -3.2620399 21.423901
1.00254 -3.2621801 21.4165
1.0286 -3.2631099 21.416401
1.05576 -3.2641699 21.4217
1.08346 -3.2615499 21.410601
1.1102999 -3.26052 21.403999
1.13658 -3.25841 21.3895
1.16135 -3.25474 21.360701
1.1876 -3.25016 21.3342
1.21398 -3.2472501 21.3167
1.23851 -3.2460699 21.3001
1.26616 -3.2406299 21.275999
1.28925 -3.2419801 21.2661
1.3159 -3.2374301 21.2425
1.34074 -3.2344401 21.219101
1.36726 -3.2325201 21.208099
1.393 -3.2293401 21.188
1.41686 -3.22592 21.159201
1.44238 -3.2253599 21.150999
1.46894 -3.2237799 21.142401
1.4937299 -3.21978 21.1152
1.51854 -3.21787 21.0982
1.54364 -3.21685 21.0867
1.56871 -3.2158401 21.0751
1.59334 -3.2128999 21.053101
1.61753 -3.2123401 21.0404
1.64214 -3.2104499 21.0235
1.66707 -3.20945 21.0119
1.6929899 -3.20824 21.003401
1.7178 -3.2054701 20.983801
1.74283 -3.20488 20.9748
1.76981 -3.2014501 20.9608
1.79603 -3.2018399 20.960899
1.82102 -3.2005701 20.948999
1.84715 -3.19787 20.9354
1.87132 -3.1949899 20.913601
1.89528 -3.1954899 20.905899
1.9198999 -3.19452 20.8944
1.94449 -3.1935501 20.882799
1.9694099 -3.1930499 20.874599
1.99471 -3.1900599 20.857401
2.01913 -3.18677 20.8358
2.0481901 -3.18753 20.848301
2.07339 -3.1875 20.843399
2.09694 -3.1828899 20.813499
2.1215899 -3.1837101 20.810301
2.1452999 -3.1808801 20.7887
2.16962 -3.17993 20.777201
2.19327 -3.18045 20.7694
2.2186201 -3.1793101 20.7609
2.24665 -3.17765 20.759899
2.27191 -3.1735799 20.7395
2.2962101 -3.1742301 20.7348
2.32146 -3.1731 20.726299
2.3455801 -3.1721699 20.7148
2.36871 -3.1717601 20.702
2.3924 -3.16991 20.6856
2.4168301 -3.16803 20.6717
2.4411099 -3.1656799 20.6556
2.46538 -3.1666501 20.6525
2.49084 -3.16608 20.647499
2.5185399 -3.16238 20.638
2.54211 -3.1624601 20.629299
2.56477 -3.16066 20.610399
2.58916 -3.161 20.6054
2.6129601 -3.1601 20.594
2.6386499 -3.1591301 20.5886
2.6638999 -3.1599901 20.5886
2.68996 -3.1577301 20.579599
2.7144301 -3.15604 20.567699
2.7383699 -3.1544399 20.554501
2.7620201 -3.1535499 20.542999
2.7851 -3.1540999 20.535101
2.8086901 -3.1532199 20.5236
2.83252 -3.1516399 20.5105
2.8568001 -3.14996 20.498501
2.8814399 -3.1496301 20.492701
2.9077401 -3.1471901 20.484501
2.93167 -3.14818 20.481199
2.9565899 -3.14679 20.472601
2.9790001 -3.1441 20.451599
3.0018599 -3.14466 20.4436
3.02931 -3.14466 20.447901
3.0558901 -3.14235 20.4415
3.07987 -3.14272 20.436399
3.10267 -3.14328 20.4284
3.1277699 -3.1440301 20.4282
3.15415 -3.14379 20.4284
3.17995 -3.1447999 20.4312
3.2093301 -3.1463301 20.446501
3.23581 -3.14867 20.4557
3.25984 -3.1482 20.448
3.2825401 -3.1487701 20.439899
3.30496 -3.1470799 20.423401
3.32897 -3.1469901 20.417101
3.3570499 -3.14692 20.423
3.38377 -3.1470201 20.425301
3.4063799 -3.1475999 20.4172
3.43309 -3.1477001 20.4195
3.4605601 -3.14891 20.4277
3.4846799 -3.1489699 20.4223
3.51194 -3.1499701 20.4291
3.5378799 -3.1512499 20.433001
3.5613201 -3.1519499 20.427799
3.5873899 -3.15413 20.4349
3.6138 -3.1559801 20.441799
3.6405101 -3.15609 20.444
3.6686299 -3.1603301 20.463301
3.69525 -3.16117 20.467501
3.7260201 -3.1622801 20.4841
3.7539799 -3.1626899 20.490601
3.7825301 -3.1677699 20.5133
3.81113 -3.1728599 20.535999
3.8395801 -3.1740501 20.546
3.8714499 -3.18016 20.580601
3.9005599 -3.18385 20.6
3.93506 -3.19138 20.6457
3.9614699 -3.1930699 20.651199
3.98963 -3.1951599 20.6625
4.01758 -3.19856 20.6772
4.0449901 -3.2019701 20.6905
4.0804 -3.2054 20.7251
4.1128302 -3.2115901 20.76
4.1423202 -3.21645 20.7827
4.1711998 -3.2219601 20.805599
4.2112098 -3.22789 20.8591
4.2502699 -3.2393501 20.926201
4.28862 -3.2543001 21.001499
-3.3787999 -3.87515 25.371099
-3.34777 -3.87567 25.366501
-3.3083799 -3.8675001 25.3237
-3.2793 -3.87006 25.3293
-3.25334 -3.87586 25.347401
-3.2142301 -3.86904 25.3332
-3.1916299 -3.8803401 25.408199
-3.16521 -3.88715 25.4534
-3.1331201 -3.8871801 25.455601
-0.0039408398 -3.4557199 22.868401
0.0283054 -3.4205699 22.656
0.055236399 -3.40657 22.5548
0.0830369 -3.4033 22.529499
0.114577 -3.38219 22.4104
0.14166801 -3.3666999 22.304399
0.16705599 -3.36186 22.258101
0.198204 -3.3403001 22.1383
0.226953 -3.3310599 22.084299
0.250485 -3.3276899 22.0397
0.27964899 -3.3189199 21.992201
0.30582201 -3.3181901 21.978901
0.334858 -3.3118401 21.946501
0.36204699 -3.3085001 21.923201
0.387445 -3.2955799 21.8332
0.41508099 -3.2899699 21.7995
0.44459099 -3.2804201 21.752501
0.47127101 -3.2766199 21.7257
0.49518999 -3.27034 21.6707
0.52040201 -3.2704301 21.659901
0.55013198 -3.2639301 21.633699
0.57439899 -3.26298 21.6127
0.60063398 -3.26144 21.5982
0.631616 -3.25739 21.592899
0.657713 -3.25173 21.554701
0.68143302 -3.2508099 21.5322
0.70705301 -3.24823 21.5098
0.73372102 -3.2451799 21.49
0.75913298 -3.24348 21.471901
0.78858501 -3.2397799 21.4622
0.817119 -3.2369399 21.4529
0.84241998 -3.23716 21.445299
0.86877102 -3.23561 21.433001
0.894427 -3.23524 21.424
0.92014098 -3.2332399 21.4067
0.94663697 -3.2336099 21.4056
0.97130501 -3.2334099 21.393299
1.00135 -3.2321501 21.399799
1.02935 -3.23158 21.4006
1.05426 -3.2320299 21.393
1.08043 -3.2302001 21.379299
1.1097 -3.22821 21.3785
1.13528 -3.2301099 21.381399
1.15977 -3.2251599 21.344801
1.18462 -3.22316 21.3251
1.2099 -3.2195001 21.299101
1.2368799 -3.2165799 21.284401
1.26357 -3.2169399 21.2847
1.2886699 -3.21152 21.249901
1.31516 -3.20945 21.2377
1.34015 -3.2084401 21.224501
1.36573 -3.20503 21.202299
1.39142 -3.20099 21.177799
1.41628 -3.19999 21.1646
1.44254 -3.1968701 21.1472
1.4688801 -3.1925099 21.124399
1.49404 -3.1914999 21.1129
1.51917 -3.1905 21.101299
1.54351 -3.19099 21.093599
1.56819 -3.1880701 21.0716
1.5928299 -3.1851699 21.0497
1.61782 -3.18417 21.038099
1.64204 -3.18467 21.030399
1.66698 -3.1836801 21.0189
1.6931601 -3.1801 21.000601
1.7187001 -3.1763201 20.9792
1.74281 -3.17682 20.9715
1.76904 -3.1772201 20.9716
1.79599 -3.17381 20.9576
1.82153 -3.17202 20.945499
1.8466001 -3.17031 20.9321
1.87128 -3.1693499 20.920601
1.8959399 -3.16839 20.9091
1.91988 -3.1689 20.9013
1.94392 -3.16606 20.879601
1.9679101 -3.1632299 20.858
1.99464 -3.1621699 20.8542
2.01847 -3.1626899 20.846399
2.0459399 -3.16171 20.8458
2.0729499 -3.1591201 20.8368
2.0962 -3.1560099 20.811899
2.1210001 -3.1563301 20.807199
2.14535 -3.1554 20.7957
2.1696801 -3.15447 20.784201
2.1933401 -3.155 20.7764
2.2187099 -3.15153 20.758499
2.24456 -3.1507101 20.753099
2.2715399 -3.14818 20.7449
2.29672 -3.14785 20.7393
2.3215599 -3.1477001 20.733299
2.34497 -3.1449299 20.711901
2.36869 -3.1431 20.6954
2.3917799 -3.14271 20.6826
2.4158001 -3.1418099 20.6712
2.4409101 -3.1407001 20.662701
2.46506 -3.1413701 20.658001
2.4913099 -3.13784 20.6441
2.517 -3.1356299 20.6336
2.5420401 -3.1339099 20.622801
2.56462 -3.13574 20.6175
2.58991 -3.13432 20.6089
2.6131599 -3.1348801 20.601
2.6371 -3.1324501 20.5842
2.6633799 -3.1307099 20.5779
2.6898401 -3.1296599 20.5748
2.7130599 -3.1288099 20.561899
2.7371399 -3.1298001 20.558599
2.76226 -3.1284001 20.549999
2.7849 -3.1280401 20.5373
2.8080299 -3.12626 20.521
2.83289 -3.12375 20.5077
2.8566301 -3.1226101 20.495899
2.8820801 -3.12307 20.495501
2.9065499 -3.12218 20.487101
2.9305 -3.12044 20.4741
2.95485 -3.1196201 20.4657
2.9783199 -3.11724 20.448999
3.0011799 -3.11782 20.441099
3.02846 -3.1164801 20.440201
3.0558901 -3.11766 20.4487
3.08022 -3.1177001 20.443501
3.10302 -3.1182799 20.435499
3.1273201 -3.11833 20.4303
3.1536601 -3.11923 20.434401
3.1800001 -3.1201301 20.4384
3.20579 -3.1196599 20.436001
3.2321301 -3.1205599 20.440001
3.2584801 -3.12146 20.443899
3.2827101 -3.12152 20.4387
3.3053899 -3.1221001 20.430599
3.3295901 -3.12216 20.425301
3.3578401 -3.1224201 20.432699
3.3842299 -3.12205 20.432501
3.4079599 -3.1235199 20.430599
3.4342799 -3.1244299 20.4345
3.4606099 -3.12535 20.438299
3.48475 -3.1254101 20.432899
3.5114701 -3.12552 20.4352
3.53897 -3.12672 20.443399
3.5630701 -3.1268001 20.438
3.5871601 -3.1268699 20.432501
3.61397 -3.1287701 20.4408
3.63973 -3.1298001 20.4433
3.6681399 -3.132 20.457001
3.6971099 -3.1342399 20.4723
3.7237 -3.1359701 20.4792
3.7523799 -3.1377599 20.4921
3.7815599 -3.14011 20.508101
3.81129 -3.14555 20.5352
3.8394201 -3.1496401 20.5534
3.87256 -3.1549201 20.5891
3.90748 -3.1600699 20.629
3.93536 -3.16344 20.643801
3.96105 -3.16629 20.6509
3.98963 -3.1705699 20.6702
4.0195498 -3.1714101 20.6824
4.0483398 -3.1752901 20.7008
4.0803399 -3.18081 20.7328
4.11061 -3.18262 20.7486
4.1413598 -3.1902499 20.783199
4.1746402 -3.1951599 20.816099
4.2087998 -3.20117 20.8545
4.2420502 -3.20818 20.8932
4.2881899 -3.2254601 20.996401
-3.44204 -3.8410299 25.3426
-3.4053299 -3.8358099 25.3137
-3.3736501 -3.8358099 25.311399
-3.32954 -3.8225601 25.2409
-3.29691 -3.82113 25.224701
-3.26649 -3.82283 25.2397
-3.23102 -3.8196299 25.239599
-3.20503 -3.8262999 25.280899
-3.18028 -3.8346601 25.3347
-3.1489 -3.83464 25.325701
-3.1214499 -3.84026 25.3661
-3.1005001 -3.8537199 25.4529
-3.0737901 -3.8601601 25.492599
-3.03982 -3.85831 25.4884
-0.063303798 -3.43801 22.940599
-0.033624899 -3.42028 22.825199
-0.0035045899 -3.40323 22.718399
0.026713001 -3.37938 22.568701
0.053027499 -3.37709 22.540899
0.082825601 -3.3606999 22.440901
0.109863 -3.3582699 22.4175
0.140581 -3.33447 22.2771
0.170845 -3.31302 22.151199
0.19879501 -3.30266 22.0849
0.22542 -3.2953501 22.0315
0.251973 -3.2923 22.005199
0.27985001 -3.2858 21.9648
0.306656 -3.2841201 21.948999
0.33499199 -3.27879 21.919201
0.35977599 -3.27369 21.872499
0.38794601 -3.26437 21.818399
0.41556501 -3.2588 21.7848
0.441064 -3.2485399 21.712601
0.46671599 -3.24511 21.6828
0.49576899 -3.2367799 21.6416
0.52157402 -3.23505 21.623301
0.54785699 -3.2330101 21.6059
0.57514203 -3.23035 21.59
0.60150403 -3.2272601 21.5672
0.62720197 -3.2273099 21.5595
0.65401298 -3.2230599 21.5329
0.68100399 -3.2195201 21.5114
0.706487 -3.2178299 21.4932
0.733374 -3.2142999 21.4718
0.76020497 -3.2107799 21.450399
0.78611201 -3.2095101 21.4373
0.81108701 -3.20894 21.4238
0.83762997 -3.20684 21.4095
0.86674601 -3.2056201 21.412001
0.89536601 -3.20263 21.4027
0.92151499 -3.2019701 21.3946
0.94647199 -3.20243 21.386999
0.97140902 -3.2028899 21.3794
0.99822497 -3.2046001 21.386999
1.0272599 -3.2014999 21.379499
1.0539 -3.20277 21.3839
1.07942 -3.20082 21.3666
1.1051199 -3.19977 21.355
1.13191 -3.20013 21.3554
1.15716 -3.19911 21.3421
1.18215 -3.1951001 21.3127
1.20849 -3.19116 21.289801
1.23586 -3.1909299 21.290199
1.26328 -3.1849999 21.2624
1.28794 -3.1830499 21.242701
1.3125499 -3.1835301 21.2351
1.33713 -3.18297 21.2223
1.36431 -3.1756899 21.187901
1.3908401 -3.17503 21.1831
1.41631 -3.17167 21.160999
1.44254 -3.16781 21.139799
1.46873 -3.16659 21.131399
1.4938999 -3.1656001 21.119801
1.51867 -3.16271 21.0977
1.543 -3.1632099 21.090099
1.56769 -3.16032 21.0681
1.59271 -3.1593399 21.056601
1.61771 -3.15836 21.045
1.64173 -3.1579199 21.032101
1.66645 -3.1559999 21.0154
1.69218 -3.1524301 20.9953
1.7179 -3.15206 20.989901
1.74231 -3.1511199 20.976801
1.76956 -3.1499801 20.9739
1.7972 -3.14486 20.955
1.82116 -3.14467 20.9438
1.84656 -3.14464 20.938999
1.87125 -3.1436901 20.9275
1.89538 -3.1408701 20.9058
1.91932 -3.1414001 20.898001
1.94336 -3.1385801 20.8764
1.9679101 -3.13765 20.864901
1.9942 -3.13662 20.8596
2.0180399 -3.13715 20.851801
2.0448899 -3.1335599 20.837799
2.0711 -3.13129 20.8272
2.09589 -3.13083 20.819
2.12169 -3.12936 20.8104
2.1454 -3.1299 20.802601
2.1687701 -3.1295099 20.789801
2.19274 -3.12767 20.7733
2.2176199 -3.1242099 20.753599
2.2451301 -3.12377 20.755699
2.2709999 -3.1242001 20.7556
2.2948401 -3.12237 20.7391
2.32095 -3.12044 20.730301
2.3443501 -3.1177001 20.7089
2.3684399 -3.1168101 20.697399
2.3919001 -3.1173601 20.6896
2.41594 -3.1164701 20.678101
2.44015 -3.1140399 20.661301
2.4649899 -3.1131799 20.652901
2.4909999 -3.10992 20.639299
2.51669 -3.1103699 20.639
2.54001 -3.11093 20.6311
2.5641 -3.1097801 20.6194
2.5892701 -3.10724 20.606001
2.6122301 -3.1068201 20.5935
2.63762 -3.1052799 20.584801
2.6615801 -3.10414 20.573099
2.68958 -3.10447 20.580299
2.7127399 -3.1050401 20.572399
2.7370999 -3.10219 20.5557
2.7616 -3.1013999 20.5473
2.7843101 -3.0987301 20.526199
2.8073599 -3.0993099 20.518299
2.8324001 -3.09793 20.509701
2.85641 -3.0975299 20.5014
2.88151 -3.0984099 20.5014
2.90818 -3.09517 20.4914
2.93033 -3.09254 20.4694
2.9540701 -3.09324 20.4645
2.9786301 -3.0922 20.455999
3.0014999 -3.0927801 20.448099
3.0258501 -3.09284 20.443001
3.0536001 -3.09238 20.4466
3.08057 -3.09268 20.4506
3.10338 -3.0932701 20.4426
3.1273501 -3.0936501 20.4375
3.1531701 -3.09465 20.4403
3.1799099 -3.09653 20.4489
3.2057099 -3.09606 20.446501
3.23207 -3.0969601 20.4505
3.2590699 -3.0966001 20.452101
3.2831299 -3.0965199 20.445801
3.30582 -3.09711 20.4377
3.32969 -3.0975001 20.4326
3.3561101 -3.0952401 20.4261
3.3835199 -3.0952599 20.430201
3.40728 -3.0961399 20.426399
3.43381 -3.09688 20.4303
3.46135 -3.0983801 20.439699
3.48524 -3.10043 20.440201
3.5112901 -3.10113 20.4424
3.5385799 -3.1010499 20.4457
3.56318 -3.10322 20.448601
3.58728 -3.1033001 20.443199
3.61362 -3.1042199 20.447001
3.63995 -3.10514 20.450701
3.6656001 -3.1047001 20.448099
3.6934299 -3.10673 20.4596
3.7242 -3.10922 20.480801
3.7532301 -3.11145 20.496099
3.78088 -3.1147699 20.5109
3.8087699 -3.1178999 20.5257
3.83707 -3.12327 20.5485
3.87514 -3.13047 20.604099
3.90714 -3.1354301 20.6355
3.9349401 -3.1366701 20.643499
3.9603801 -3.13906 20.648399
3.98932 -3.1459 20.6768
4.0213599 -3.1464601 20.694
4.0492301 -3.1488099 20.7052
4.0802698 -3.1562099 20.740499
4.1142101 -3.15786 20.765699
4.1434498 -3.1647601 20.7941
4.1736898 -3.1682999 20.814899
4.2063799 -3.1744599 20.849899
4.2445402 -3.18225 20.9042
4.2932 -3.2002499 21.0166
-3.43331 -3.79878 25.278799
-3.3879499 -3.7857299 25.2374
-3.35531 -3.7843201 25.2213
-3.3188801 -3.7791901 25.192699
-3.2876501 -3.7791901 25.184
-3.2564299 -3.7791901 25.175301
-3.2246399 -3.7795501 25.187201
-3.1976199 -3.7854199 25.233101
-3.1689501 -3.7892301 25.2614
-3.1399 -3.7925701 25.285101
-3.10886 -3.7941501 25.306
-3.08126 -3.7993 25.339899
-3.0602901 -3.8104801 25.379999
-3.0286 -3.8119199 25.406
-3.0081301 -3.8259399 25.491501
-2.97542 -3.82604 25.5051
-0.120382 -3.40677 22.9359
-0.090934597 -3.4015999 22.902901
-0.059298702 -3.3844399 22.8013
-0.0321589 -3.37674 22.7391
-0.0017253 -3.35304 22.589001
0.026487101 -3.3401699 22.500799
0.0530334 -3.3367901 22.4674
0.084430702 -3.32393 22.3995
0.111591 -3.31233 22.3169
0.14103299 -3.29194 22.191
0.170638 -3.27425 22.0853
0.198599 -3.2669301 22.0383
0.22553 -3.2634699 22.011101
0.252197 -3.25122 21.9272
0.278927 -3.2478099 21.9002
0.30475199 -3.24822 21.892599
0.33434501 -3.24087 21.857
0.36076799 -3.23874 21.837299
0.38889399 -3.2295201 21.783501
0.41523501 -3.21822 21.708401
0.442563 -3.2123499 21.6721
0.469302 -3.2091701 21.649401
0.49639401 -3.2047999 21.6217
0.523215 -3.20104 21.5966
0.54921597 -3.2006199 21.5872
0.57443899 -3.19698 21.5553
0.60274202 -3.1903601 21.521799
0.62937099 -3.1926701 21.532
0.65557998 -3.1906099 21.5149
0.683011 -3.18521 21.4849
0.70880401 -3.18399 21.471001
0.73408002 -3.1833899 21.4583
0.762591 -3.1759601 21.4231
0.78777403 -3.17537 21.4104
0.81281 -3.1758399 21.402901
0.837937 -3.1752501 21.3902
0.86431599 -3.1742301 21.381201
0.891904 -3.17064 21.363899
0.91986501 -3.1709199 21.3694
0.94620299 -3.16817 21.3512
0.97343999 -3.16927 21.3577
0.998402 -3.1687 21.344999
1.02494 -3.17101 21.3547
1.05415 -3.16733 21.344999
1.0807 -3.1696401 21.3547
1.10554 -3.17012 21.347099
1.13039 -3.16956 21.334299
1.15518 -3.1700399 21.326599
1.18221 -3.1651101 21.301399
1.20751 -3.1632099 21.284201
1.23373 -3.1612301 21.2707
1.25872 -3.1589999 21.2509
1.28649 -3.1552801 21.235901
1.3108701 -3.15418 21.2194
1.33573 -3.15363 21.207701
1.36332 -3.1501501 21.1936
1.3900501 -3.14731 21.179001
1.41651 -3.14272 21.155001
1.44133 -3.1417699 21.1418
1.46702 -3.1392 21.124701
1.49266 -3.1366401 21.1077
1.51817 -3.1349199 21.0942
1.5425 -3.1354301 21.0865
1.56832 -3.1329899 21.0711
1.5930099 -3.13116 21.054199
1.61713 -3.1296401 21.036501
1.64174 -3.12781 21.0196
1.66593 -3.12833 21.0119
1.69258 -3.12569 20.999701
1.71727 -3.1240301 20.9842
1.7424099 -3.1224501 20.9711
1.76809 -3.1220601 20.9655
1.79559 -3.1194799 20.9573
1.82122 -3.1191299 20.951799
1.84683 -3.1166301 20.9368
1.8705699 -3.11515 20.919201
1.89482 -3.1133599 20.9025
1.91875 -3.1138999 20.894699
1.94403 -3.1115201 20.879499
1.96816 -3.10975 20.8627
1.99362 -3.1085899 20.853701
2.01807 -3.10868 20.846399
2.0446701 -3.10535 20.8326
2.0706799 -3.1057701 20.8325
2.0959301 -3.1028299 20.815599
2.1210999 -3.10199 20.807199
2.14463 -3.1015401 20.7946
2.1684899 -3.0998001 20.777901
2.1921401 -3.1003499 20.770201
2.2178299 -3.0989101 20.7616
2.2456901 -3.0968299 20.7582
2.2709 -3.0964799 20.752501
2.2958701 -3.09478 20.740499
2.3203299 -3.0931799 20.727301
2.34446 -3.0922999 20.715799
2.3685601 -3.0914299 20.7043
2.3921199 -3.08972 20.6877
2.4150701 -3.0883 20.670401
2.44066 -3.08675 20.6618
2.46486 -3.0856099 20.65
2.49032 -3.0850699 20.645
2.5165601 -3.0828199 20.6362
2.5399499 -3.0823901 20.624701
2.5645101 -3.0817299 20.6164
2.5886199 -3.0801699 20.603201
2.6124301 -3.07932 20.591801
2.6373301 -3.0782599 20.5833
2.66132 -3.0789499 20.578501
2.68681 -3.0767901 20.568001
2.71263 -3.0766001 20.566099
2.7358999 -3.07393 20.5464
2.7598 -3.07463 20.541599
2.78456 -3.07358 20.5331
2.8081501 -3.0727501 20.5217
2.8311 -3.0711 20.505301
2.85482 -3.0709901 20.4972
2.8786399 -3.0694699 20.4842
2.9071801 -3.06828 20.487801
2.93014 -3.0674801 20.474899
2.95472 -3.06723 20.4692
2.97895 -3.0671401 20.462999
3.0016799 -3.06551 20.4466
3.0252399 -3.0654099 20.438499
3.0522399 -3.0648501 20.439501
3.0785999 -3.06475 20.440201
3.1023099 -3.06547 20.4354
3.1268599 -3.0657001 20.431601
3.15417 -3.0665901 20.4387
3.1816101 -3.0687301 20.450399
3.2052801 -3.0694599 20.445601
3.2316201 -3.06937 20.446199
3.2586 -3.06882 20.4471
3.2820101 -3.0687399 20.438801
3.3046899 -3.06934 20.430799
3.3283999 -3.0703199 20.427099
3.35676 -3.06779 20.425501
3.3828101 -3.06847 20.427799
3.4054201 -3.0690801 20.419701
3.43257 -3.06778 20.418699
3.45994 -3.07005 20.430201
3.4837401 -3.0704601 20.424999
3.5120299 -3.07217 20.437201
3.5383301 -3.0735199 20.4424
3.56196 -3.07482 20.4396
3.5863199 -3.07587 20.4382
3.6131101 -3.0766799 20.4429
3.6398301 -3.07777 20.4484
3.66517 -3.07814 20.4475
3.69348 -3.0806999 20.462099
3.7216401 -3.0819099 20.471901
3.74951 -3.08393 20.4834
3.7771499 -3.08724 20.498199
3.8057301 -3.0922501 20.521
3.8404601 -3.09729 20.5609
3.87624 -3.10518 20.612499
3.90604 -3.1092601 20.635099
3.93525 -3.11291 20.654499
3.96401 -3.1138401 20.664101
3.9934199 -3.12023 20.6924
4.0229902 -3.1229501 20.7096
4.05126 -3.1233699 20.716
4.0803199 -3.1284699 20.7388
4.1139302 -3.13308 20.7724
4.1427598 -3.1373701 20.7918
4.1708102 -3.1408701 20.806601
4.2088399 -3.1485701 20.8608
4.2470698 -3.1568699 20.917
4.2947302 -3.1731601 21.0221
-3.4639299 -3.7646501 25.259001
-3.42062 -3.7535 25.2202
-3.37937 -3.7437601 25.174101
-3.34723 -3.7438099 25.187901
-3.3150799 -3.7427399 25.171101
-3.2857201 -3.7444899 25.1668
-3.2535999 -3.74387 25.162201
-3.2214899 -3.7432499 25.157499
-3.19046 -3.7444201 25.174
-3.1591499 -3.74599 25.2048
-3.1345899 -3.75385 25.247
-3.1059 -3.7571399 25.2631
-3.07477 -3.7588601 25.289301
-3.04725 -3.7638099 25.3179
-3.01966 -3.76876 25.3465
-2.99031 -3.77245 25.378599
-2.9667101 -3.7820201 25.4289
-2.9437201 -3.7936699 25.508101
-1.89644 -3.54951 24.048
-1.86071 -3.5390699 23.9769
-1.83442 -3.54491 24.007401
-1.80285 -3.5423501 23.990299
-1.76625 -3.53266 23.9401
-1.73929 -3.5357299 23.944201
-1.70877 -3.53688 23.960899
-1.67764 -3.53598 23.9599
-1.6459301 -3.52916 23.8979
-1.61567 -3.5305901 23.9151
-1.58675 -3.5323999 23.9235
-1.5578099 -3.5366399 23.958401
-1.52746 -3.53564 23.948999
-1.45715 -3.5149 23.820601
-1.42584 -3.51616 23.844999
-1.3679 -3.5188799 23.8536
-0.178103 -3.3759501 22.9298
-0.152281 -3.37904 22.932301
-0.119574 -3.36145 22.831499
-0.0894702 -3.3499501 22.7589
-0.058779199 -3.33953 22.6984
-0.0303168 -3.3257799 22.6028
-0.0020892399 -3.31214 22.5079
0.026886201 -3.30545 22.4657
0.0535108 -3.2950399 22.385599
0.084803998 -3.28356 22.3262
0.11361 -3.26844 22.229601
0.170825 -3.2402201 22.051201
0.22437701 -3.22523 21.942499
0.251809 -3.2209799 21.913601
0.279704 -3.21734 21.891399
0.30692199 -3.2126999 21.859501
0.33388999 -3.2097299 21.8372
0.36025399 -3.2035 21.7918
0.38563001 -3.19753 21.743299
0.41354701 -3.1909101 21.7047
0.44194299 -3.18132 21.651199
0.46908799 -3.1777301 21.628099
0.49257901 -3.1717999 21.572399
0.51895201 -3.1708801 21.562
0.54529202 -3.16769 21.5382
0.57098901 -3.1656799 21.518299
0.60114998 -3.16254 21.5145
0.62805301 -3.1614201 21.5063
0.65420198 -3.1573801 21.477501
0.68060601 -3.15394 21.453699
0.705742 -3.1544099 21.446301
0.73330897 -3.1514699 21.431601
0.75947499 -3.14645 21.3985
0.78703898 -3.1461899 21.3992
0.81425703 -3.1445799 21.3906
0.839257 -3.1450601 21.3832
0.86507499 -3.1421001 21.3608
0.89011598 -3.1415401 21.348101
0.917256 -3.1395199 21.3375
0.94461101 -3.1380401 21.3309
0.97208703 -3.13869 21.336399
0.99886698 -3.13905 21.337
1.02372 -3.13954 21.329399
1.05171 -3.1394701 21.3333
1.07981 -3.1405599 21.3438
1.10681 -3.1389799 21.335199
1.1316 -3.1394801 21.327499
1.1563801 -3.1399701 21.319901
1.18177 -3.1370499 21.2976
1.20709 -3.13414 21.275299
1.2326 -3.1331401 21.263599
1.2586 -3.13235 21.2554
1.28441 -3.12815 21.2293
1.31121 -3.1247399 21.2117
1.33578 -3.1252401 21.204
1.3643399 -3.1219001 21.194599
1.38943 -3.1164 21.159901
1.41185 -3.1170399 21.1443
1.43998 -3.1149399 21.1394
1.46664 -3.1105399 21.1175
1.4923199 -3.1090701 21.1057
1.51803 -3.10903 21.101
1.54313 -3.1080699 21.0895
1.56725 -3.1076601 21.076599
1.59264 -3.1033599 21.0508
1.61742 -3.10148 21.0341
1.6416399 -3.10201 21.026501
1.6665699 -3.1010699 21.014999
1.69179 -3.10059 21.0068
1.71884 -3.0952599 20.9839
1.74238 -3.0944099 20.967699
1.76861 -3.09482 20.9678
1.79483 -3.0952201 20.968
1.82109 -3.09057 20.945601
1.8461601 -3.0880799 20.928499
1.87084 -3.0871601 20.917
1.8947999 -3.0877099 20.9093
1.91942 -3.0868001 20.8978
1.94306 -3.0864201 20.885
1.96773 -3.0822201 20.8596
1.9919699 -3.0804 20.8431
2.01719 -3.0804 20.838301
2.04403 -3.0812399 20.8431
2.0706 -3.07794 20.829399
2.0957501 -3.0750699 20.812201
2.1205101 -3.07463 20.804001
2.14486 -3.07374 20.792601
2.16855 -3.0743101 20.7848
2.19221 -3.0748701 20.777
2.21751 -3.073 20.7652
2.2435999 -3.06991 20.751301
2.27087 -3.0681601 20.747299
2.29546 -3.06774 20.7391
2.3204401 -3.06776 20.7342
2.3445799 -3.0669 20.7227
2.3679399 -3.06422 20.7013
2.3916299 -3.0624499 20.6849
2.4152901 -3.0606899 20.668501
2.44014 -3.06072 20.663601
2.46454 -3.0603099 20.655399
2.4879799 -3.0599599 20.6441
2.51647 -3.0546801 20.6311
2.53988 -3.0538599 20.6182
2.56409 -3.0548601 20.615101
2.58881 -3.0548999 20.6101
2.6126201 -3.05407 20.5987
2.6354201 -3.05375 20.585899
2.6605799 -3.0513501 20.5732
2.6854401 -3.04918 20.560499
2.7100999 -3.04831 20.5522
2.7356501 -3.04877 20.5518
2.7604001 -3.0485001 20.5462
2.7843599 -3.0475099 20.5352
2.8074801 -3.0458 20.518999
2.8301101 -3.0432 20.4979
2.8531101 -3.0438001 20.49
2.8780899 -3.04245 20.481501
2.9045 -3.04333 20.485701
2.9289501 -3.04247 20.477301
2.9538701 -3.0411301 20.4688
2.9782701 -3.0379801 20.452101
3.0006299 -3.0376999 20.4394
3.0257699 -3.03845 20.439199
3.05182 -3.0372601 20.434999
3.0781701 -3.0381401 20.4391
3.1024799 -3.0382199 20.434
3.12677 -3.03829 20.4289
3.1542201 -3.0394599 20.4373
3.18051 -3.04094 20.4433
3.2056201 -3.0416999 20.4431
3.2320001 -3.0414801 20.4433
3.2578199 -3.04249 20.4461
3.2821801 -3.0415001 20.437599
3.3048601 -3.04212 20.429501
3.3275101 -3.0427401 20.4214
3.3542399 -3.04283 20.423901
3.3817101 -3.0440099 20.432199
3.4063101 -3.0427001 20.4235
3.43013 -3.0431099 20.418301
3.45697 -3.0444901 20.425301
3.48423 -3.04547 20.432199
3.5083499 -3.0455599 20.426901
3.5346701 -3.0464699 20.4307
3.5609901 -3.04739 20.4345
3.5850799 -3.0474899 20.429199
3.6115999 -3.0492101 20.436199
3.63923 -3.04986 20.4429
3.6629601 -3.0502801 20.437599
3.6937599 -3.05249 20.4583
3.72189 -3.05721 20.479401
3.7494199 -3.05949 20.4907
3.7790401 -3.0602601 20.503099
3.8090501 -3.0676501 20.5376
3.8382399 -3.07303 20.563101
3.8738899 -3.0787499 20.607599
3.90716 -3.08393 20.643499
3.93718 -3.0885899 20.668501
3.96667 -3.0892899 20.6793
3.99471 -3.09637 20.705999
4.0233498 -3.0991099 20.720699
4.05163 -3.09953 20.7271
4.0803699 -3.1007199 20.737101
4.11411 -3.1078601 20.778999
4.1423502 -3.11044 20.791599
4.17206 -3.11538 20.8153
4.2112999 -3.1226499 20.8717
4.2445998 -3.12953 20.9105
4.3053799 -3.1476099 21.056499
-3.4879999 -3.72453 25.221399
-3.4614699 -3.72928 25.232901
-3.4137499 -3.71348 25.1668
-3.3787401 -3.7100599 25.150801
-3.3452301 -3.7084799 25.152201
-3.3113101 -3.7052801 25.118799
-3.2814701 -3.7070799 25.127899
-3.2444 -3.7021501 25.121599
-3.2183299 -3.7072501 25.1329
-3.1865599 -3.7076001 25.1457
-3.1552501 -3.70873 25.167801
-3.12537 -3.71015 25.1665
-3.0936899 -3.71087 25.1845
-3.0688601 -3.71856 25.2274
-3.03652 -3.7186201 25.2411
-3.0102401 -3.7251501 25.282101
-2.9800999 -3.72648 25.2808
-2.9542401 -3.73454 25.3437
-2.92469 -3.7383399 25.381001
-2.9059999 -3.75476 25.4834
-2.1410699 -3.51985 24.0378
-2.10641 -3.51284 23.992201
-2.07427 -3.5100999 23.977301
-2.04248 -3.50723 23.9571
-2.0125301 -3.5068901 23.950399
-1.98581 -3.5106201 23.961201
-1.95173 -3.50459 23.9261
-1.91802 -3.4991601 23.8957
-1.88116 -3.4888 23.8375
-1.85603 -3.49546 23.868799
-1.82213 -3.48914 23.831301
-1.78773 -3.4828701 23.8004
-1.7544399 -3.4791901 23.7901
-1.72452 -3.4795401 23.7939
-1.68976 -3.47224 23.756001
-1.6681 -3.48265 23.7952
-1.63266 -3.4741001 23.7507
-1.60437 -3.4766901 23.764299
-1.56811 -3.46439 23.6873
-1.5446301 -3.4739799 23.733
-1.5098799 -3.4689901 23.7237
-1.48237 -3.47189 23.732901
-1.4529001 -3.47243 23.734699
-1.41843 -3.4664099 23.7122
-1.3900599 -3.4698701 23.7346
-1.36009 -3.4690599 23.726801
-1.33289 -3.47295 23.7428
-1.30308 -3.47454 23.7577
-1.27079 -3.4703901 23.7363
-1.24053 -3.4691601 23.726801
-1.2085299 -3.4647501 23.7012
-1.17843 -3.4684801 23.738899
-1.14768 -3.4667599 23.729
-1.09115 -3.4700999 23.733601
-0.41834801 -3.40727 23.341801
-0.39055201 -3.4075799 23.333099
-0.35826701 -3.3981299 23.280001
-0.29636401 -3.3619299 23.0313
-0.26356399 -3.3433001 22.917601
-0.238654 -3.35061 22.945499
-0.208122 -3.33969 22.875999
-0.17651799 -3.3308001 22.828699
-0.148041 -3.32844 22.8095
-0.114707 -3.3141601 22.7358
-0.084433302 -3.2982099 22.633101
-0.0587404 -3.30021 22.629601
-0.0301525 -3.28455 22.5212
-0.0016409 -3.2774501 22.4727
0.026854699 -3.2645199 22.385
0.055780899 -3.2593701 22.353701
0.084292203 -3.24753 22.2757
0.111416 -3.23943 22.2157
0.142515 -3.2168601 22.083401
0.17038301 -3.2030101 21.9921
0.197467 -3.1984 21.9578
0.225444 -3.1927199 21.9221
0.251268 -3.1867299 21.8731
0.27559599 -3.18678 21.855
0.304694 -3.1786699 21.811399
0.33051401 -3.17804 21.7978
0.35952401 -3.1694701 21.751801
0.38863099 -3.1612699 21.709101
0.41459399 -3.15681 21.673599
0.43883899 -3.1511099 21.621799
0.46654901 -3.1440401 21.5805
0.49302101 -3.1410301 21.557899
0.51938099 -3.1389899 21.5408
0.54754001 -3.1330299 21.5096
0.57296801 -3.1324501 21.497
0.59819901 -3.13292 21.489599
0.62492001 -3.1301701 21.471001
0.65229702 -3.12498 21.441601
0.67797101 -3.1240399 21.428801
0.70268399 -3.1248901 21.4216
0.73054302 -3.1189101 21.391001
0.75695598 -3.11713 21.377501
0.78408998 -3.1172199 21.378099
0.81185001 -3.1127701 21.3564
0.83825701 -3.11356 21.357599
0.86527699 -3.1094699 21.3347
0.89223802 -3.1080101 21.3263
0.91712803 -3.10851 21.318899
0.94253999 -3.10923 21.315201
0.967803 -3.1094301 21.308001
0.99709302 -3.10851 21.313601
1.0241801 -3.10993 21.3214
1.04906 -3.1094 21.308701
1.07575 -3.1121199 21.321501
1.1040699 -3.1099501 21.315901
1.13122 -3.1103499 21.318501
1.15599 -3.1108601 21.3109
1.18216 -3.1075001 21.2897
1.2077 -3.1065199 21.278099
1.23295 -3.10467 21.261
1.25763 -3.1031301 21.243099
1.28362 -3.0998001 21.222099
1.30901 -3.09883 21.210501
1.33477 -3.09712 21.197001
1.36063 -3.0945799 21.1798
1.3884701 -3.0918901 21.1707
1.41128 -3.09111 21.1495
1.43925 -3.0857 21.127899
1.46632 -3.0836699 21.119101
1.4907 -3.0841999 21.1115
1.51735 -3.08162 21.0984
1.54263 -3.0803101 21.085899
1.56688 -3.0798399 21.0732
1.59158 -3.0780499 21.056299
1.6173199 -3.07566 21.040899
1.6415401 -3.0762 21.0333
1.66605 -3.07342 21.0114
1.69168 -3.0725501 21.003099
1.71749 -3.0695801 20.986
1.7416 -3.0701301 20.9783
1.76913 -3.06758 20.9701
1.795 -3.06618 20.960699
1.82037 -3.0635099 20.9438
1.84612 -3.0623801 20.9354
1.87081 -3.0614901 20.923901
1.8950599 -3.0597501 20.907101
1.91873 -3.05832 20.889601
1.9428999 -3.0565801 20.872801
1.9667701 -3.0571499 20.865101
1.9919699 -3.0548201 20.849899
2.01686 -3.05516 20.8452
2.04442 -3.0517299 20.834499
2.0706201 -3.04951 20.8239
2.0950999 -3.05019 20.8193
2.1212101 -3.0476601 20.807199
2.1449201 -3.0482299 20.7995
2.1686001 -3.0488 20.7917
2.19224 -3.0461199 20.770201
2.2165201 -3.0460701 20.762199
2.2448299 -3.0432799 20.7575
2.2704999 -3.0427301 20.7526
2.2933199 -3.04197 20.736601
2.3206601 -3.04006 20.732201
2.34396 -3.03966 20.719601
2.3673201 -3.03701 20.6982
2.3913901 -3.03617 20.6868
2.4154201 -3.0353301 20.6754
2.43994 -3.0357001 20.670601
2.4635999 -3.03319 20.6514
2.4878199 -3.0327401 20.642401
2.5138099 -3.0295401 20.628799
2.53948 -3.02999 20.628599
2.56357 -3.0288899 20.616899
2.58901 -3.02739 20.608299
2.61198 -3.02701 20.5958
2.6349101 -3.0266399 20.5832
2.65941 -3.0243199 20.568501
2.6842201 -3.02405 20.562901
2.70978 -3.0245199 20.562599
2.7344301 -3.0236499 20.554199
2.7592199 -3.0215199 20.541599
2.7838299 -3.0204799 20.5326
2.8068199 -3.0188601 20.516199
2.83038 -3.01807 20.504801
2.8539 -3.0172701 20.493401
2.8780401 -3.0176699 20.488501
2.90114 -3.0162001 20.473499
2.9286799 -3.0137899 20.469299
2.9535301 -3.0130301 20.4627
2.9775901 -3.0134301 20.457701
3.0009601 -3.01265 20.446301
3.02531 -3.0127299 20.4412
3.0516701 -3.0136099 20.4454
3.0777199 -3.0124199 20.4412
3.1028399 -3.01318 20.441
3.1266601 -3.0146599 20.439301
3.1530199 -3.0155499 20.443399
3.1793699 -3.0164399 20.4475
3.2051699 -3.01599 20.4452
3.2311299 -3.0159199 20.4447
3.2568099 -3.0166099 20.4459
3.2811699 -3.01563 20.437401
3.30528 -3.0171001 20.4366
3.3276801 -3.0155301 20.420099
3.35429 -3.0157399 20.4226
3.38042 -3.0164101 20.4252
3.4036601 -3.0165999 20.4175
3.4293499 -3.01684 20.417299
3.4560599 -3.0169401 20.419701
3.48332 -3.01791 20.4266
3.50791 -3.0190201 20.4261
3.5310099 -3.01947 20.419001
3.5573001 -3.0208099 20.4242
3.5856099 -3.0225 20.436399
3.60935 -3.0229199 20.431101
3.63623 -3.0243101 20.438
3.6635101 -3.02529 20.444799
3.6918299 -3.0264201 20.455
3.7189801 -3.0274601 20.461399
3.7467799 -3.0325201 20.482599
3.7779901 -3.03543 20.5065
3.8069699 -3.039 20.525999
3.84185 -3.0504799 20.5872
3.8754001 -3.05527 20.622999
3.9096 -3.0588 20.6563
3.9391201 -3.06425 20.6824
3.96699 -3.06547 20.690399
3.9935999 -3.0670099 20.6959
4.02349 -3.0710001 20.718
4.05234 -3.07426 20.7349
4.0802999 -3.0760901 20.744699
4.1146402 -3.0790401 20.7754
4.14221 -3.0827 20.7896
4.1756902 -3.0891199 20.828199
4.2059898 -3.09323 20.850901
4.2421598 -3.1027801 20.9058
-3.48791 -3.6923699 25.233
-3.44996 -3.68595 25.196899
-3.40556 -3.67314 25.133301
-3.3743899 -3.6731801 25.124901
-3.33815 -3.6684301 25.1015
-3.30353 -3.6647601 25.0716
-3.27022 -3.6624701 25.0509
-3.23753 -3.6621699 25.0711
-3.2091899 -3.6656301 25.0924
-3.1770599 -3.66558 25.1043
-3.1449201 -3.6654799 25.114901
-3.1164 -3.6684999 25.126101
-3.0878799 -3.6719699 25.1472
-3.05691 -3.67361 25.1733
-3.03192 -3.6800799 25.191799
-3.0028901 -3.6833401 25.2146
-2.97334 -3.6866 25.246401
-2.9437001 -3.6898701 25.2782
-2.9185801 -3.69766 25.3225
-2.8903301 -3.7028899 25.3671
-2.872 -3.7191601 25.4611
-2.27178 -3.5033801 24.133301
-2.2339599 -3.49037 24.033001
-2.2017 -3.48737 24.0138
-2.1652801 -3.4786201 23.9629
-2.1294701 -3.4705801 23.9163
-2.0959899 -3.4651301 23.879801
-2.062 -3.45945 23.8473
-2.02549 -3.4502599 23.796499
-1.99684 -3.4520199 23.8055
-1.96697 -3.45099 23.790899
-1.9318 -3.4437001 23.753099
-1.90056 -3.44101 23.733101
-1.87168 -3.4412301 23.725201
-1.84306 -3.4429901 23.7339
-1.80784 -3.4341199 23.679899
-1.77644 -3.4325199 23.6766
-1.7429399 -3.4287 23.6682
-1.71437 -3.43047 23.6768
-1.6812 -3.4249201 23.6448
-1.65098 -3.42342 23.631599
-1.62028 -3.4208701 23.611401
-1.59089 -3.4198999 23.596901
-1.56229 -3.42014 23.5889
-1.53277 -3.4208701 23.594999
-1.49938 -3.4169099 23.5856
-1.4681799 -3.41486 23.577
-1.44134 -3.4179599 23.584101
-1.4070801 -3.41101 23.551201
-1.3782099 -3.4110501 23.544399
-1.34597 -3.4093399 23.5492
-1.31849 -3.41294 23.566999
-1.29403 -3.4189301 23.582399
-1.26059 -3.41523 23.577
-1.2270401 -3.4112999 23.570299
-1.20425 -3.42102 23.607901
-1.17557 -3.4263101 23.6504
-1.14746 -3.4282501 23.655001
-1.11515 -3.42278 23.6229
-1.0865999 -3.4242301 23.626499
-1.05819 -3.4305 23.674101
-1.02942 -3.4346499 23.703899
-0.99989003 -3.4293101 23.6518
-0.96877199 -3.42944 23.662901
-0.93763602 -3.42958 23.674101
-0.91008502 -3.4354601 23.708799
-0.87966299 -3.4363401 23.720301
-0.84687001 -3.43013 23.6875
-0.818358 -3.4294801 23.6714
-0.51019502 -3.38889 23.4126
-0.481168 -3.3846099 23.3752
-0.44806999 -3.37198 23.3006
-0.42031801 -3.3761001 23.321199
-0.38653001 -3.3552101 23.1896
-0.353259 -3.3267701 22.999201
-0.32596499 -3.3244801 22.9704
-0.29407999 -3.3129499 22.9025
-0.26271901 -3.3075199 22.8776
-0.232691 -3.3022001 22.845501
-0.205979 -3.29632 22.789
-0.17632701 -3.2887001 22.739
-0.146578 -3.2837 22.7092
-0.116554 -3.27757 22.673599
-0.087590598 -3.2711699 22.6301
-0.057510801 -3.25718 22.5406
-0.0299701 -3.2511101 22.492599
-0.0020787001 -3.2397699 22.410801
0.0284332 -3.2299199 22.3559
0.0526536 -3.2266901 22.3102
0.082990102 -3.2160201 22.2502
0.143718 -3.1820099 22.0487
0.16978 -3.17379 21.9839
0.19889 -3.1645401 21.930401
0.223397 -3.15856 21.873199
0.249708 -3.15505 21.8428
0.27698499 -3.1509099 21.814199
0.305749 -3.1458199 21.787901
0.332881 -3.1417 21.759399
0.360497 -3.13817 21.737499
0.38699001 -3.12887 21.6738
0.41183901 -3.1269801 21.648199
0.43974501 -3.1185601 21.598801
0.46738699 -3.1121099 21.560801
0.493709 -3.1110599 21.549299
0.521267 -3.10553 21.517099
0.54838401 -3.1020899 21.4958
0.57362098 -3.1025701 21.4884
0.60064501 -3.0991499 21.4671
0.62614799 -3.0975599 21.4492
0.65306801 -3.0941501 21.4279
0.679115 -3.0931301 21.4165
0.70501101 -3.0912399 21.399401
0.73034102 -3.0896699 21.3815
0.757065 -3.0862899 21.3603
0.78296602 -3.0852799 21.3489
0.80928898 -3.08354 21.335501
0.83491099 -3.08178 21.318701
0.86031502 -3.0808799 21.305901
0.890876 -3.0785501 21.309999
0.917633 -3.0789101 21.310699
0.94249302 -3.0794101 21.303301
0.96733397 -3.0799201 21.2959
0.99346399 -3.07985 21.291401
1.02298 -3.07968 21.302099
1.04959 -3.07847 21.2938
1.0750901 -3.07988 21.294399
1.1008199 -3.0801599 21.290001
1.12772 -3.08108 21.2943
1.15644 -3.0799401 21.296101
1.18256 -3.07797 21.281799
1.20726 -3.0785 21.2742
1.23253 -3.07565 21.252001
1.25799 -3.0746901 21.2404
1.28329 -3.0727899 21.223499
1.30855 -3.0709 21.206699
1.33363 -3.0680799 21.1845
1.3602901 -3.06656 21.176001
1.38586 -3.0660701 21.1679
1.4114799 -3.0622001 21.143499
1.43894 -3.05881 21.1294
1.4654 -3.0592 21.129801
1.4893301 -3.0583601 21.113501
1.51675 -3.05303 21.0903
1.54213 -3.0525601 21.082199
1.5671901 -3.05164 21.070801
1.59147 -3.0521901 21.063101
1.6162699 -3.05035 21.0464
1.64103 -3.0485201 21.029699
1.66553 -3.0457699 21.007799
1.6918 -3.0442901 20.9993
1.7166899 -3.04527 20.996599
1.7413 -3.0434501 20.9799
1.76767 -3.03969 20.961599
1.7951699 -3.0371499 20.953501
1.81998 -3.03813 20.950701
1.84609 -3.03668 20.9422
1.86983 -3.03633 20.9293
1.89465 -3.0321701 20.9039
1.91899 -3.03038 20.8873
1.94289 -3.0309501 20.879601
1.96745 -3.0300901 20.8682
1.99102 -3.0297501 20.8554
2.0169799 -3.0272701 20.842501
2.0441999 -3.02355 20.8291
2.07021 -3.0239799 20.829201
2.0955801 -3.02367 20.8237
2.12029 -3.02264 20.8127
2.14433 -3.02089 20.7962
2.16801 -3.0214701 20.7885
2.1916499 -3.01882 20.767
2.21591 -3.0179701 20.7556
2.24315 -3.0179901 20.758699
2.2699699 -3.0186999 20.7631
2.2948501 -3.01458 20.740601
2.31881 -3.01283 20.724701
2.3433499 -3.01244 20.716499
2.36745 -3.01161 20.705099
2.3909199 -3.0122099 20.6973
2.4145801 -3.0104899 20.680901
2.43821 -3.00877 20.664499
2.4627099 -3.00546 20.645
2.4877 -3.0051899 20.6395
2.5133901 -3.00565 20.639299
2.53824 -3.0047801 20.631001
2.56409 -3.0016799 20.617399
2.5881 -2.9993501 20.600599
2.61133 -2.9999599 20.5928
2.6351099 -2.9991601 20.5814
2.65977 -2.9992299 20.5765
2.68396 -2.9988599 20.5683
2.7071099 -2.99948 20.5604
2.73406 -2.9955101 20.547899
2.75846 -2.9939799 20.536301
2.7840199 -2.9930799 20.531
2.80708 -2.9937 20.5231
2.8306401 -2.9929199 20.5117
2.8531799 -2.99266 20.499001
2.8780701 -2.99031 20.4863
2.9026799 -2.98822 20.473801
2.92711 -2.98739 20.465401
2.9535 -2.98826 20.4697
2.9779 -2.9883499 20.4646
3.0012801 -2.9875801 20.453199
3.02531 -2.9879899 20.448299
3.0527501 -2.98646 20.447201
3.0782499 -2.9854701 20.4419
3.10215 -2.9863701 20.4384
3.12551 -2.99016 20.443501
3.1525199 -2.9909401 20.449301
3.1787701 -2.9883699 20.4408
3.20382 -2.98928 20.441
3.2272601 -2.9892299 20.432699
3.25526 -2.9881101 20.4349
3.28054 -2.98861 20.434299
3.3041501 -2.9893601 20.429501
3.32655 -2.9878099 20.413099
3.3515799 -2.98858 20.4128
3.3778999 -2.9883699 20.413
3.4036701 -2.9893899 20.4158
3.42748 -2.98982 20.410601
3.4551499 -2.9893999 20.414101
3.4819901 -2.9907601 20.4212
3.50577 -2.9912 20.416
3.5297999 -2.9926801 20.4151
3.5559599 -2.99143 20.411301
3.5848801 -2.9957299 20.434099
3.6085701 -2.99665 20.4303
3.6359601 -2.99809 20.4389
3.6640699 -3.0002799 20.452101
3.6916101 -3.0020499 20.462099
3.7195499 -3.00243 20.4687
3.7500501 -3.006 20.4928
3.78214 -3.0120299 20.5294
3.8255899 -3.02317 20.614401
3.85062 -3.0302899 20.6336
3.8800399 -3.0309601 20.6446
3.9096799 -3.0329399 20.6602
3.93945 -3.03933 20.6901
3.96731 -3.04162 20.7015
3.9942901 -3.04176 20.703501
4.0229998 -3.0429201 20.7136
4.05159 -3.0471799 20.732901
4.0802398 -3.05145 20.7523
4.1106801 -3.0520799 20.7652
4.13903 -3.0541301 20.776699
4.1704102 -3.0597799 20.8074
4.2072501 -3.0676701 20.859699
4.2466998 -3.0754099 20.9181
4.28122 -3.0823901 20.9606
-3.4869599 -3.65892 25.225401
-3.4456 -3.64926 25.1758
-3.4039199 -3.6392701 25.1273
-3.3701 -3.63661 25.104
-3.33587 -3.63358 25.081699
-3.30075 -3.6298201 25.0613
-3.2697001 -3.62989 25.0529
-3.2356801 -3.6271 25.035601
-3.2024901 -3.6263101 25.0543
-3.1715901 -3.62693 25.058201
-3.1424899 -3.6294899 25.0725
-3.1142099 -3.6335599 25.106701
-3.0846801 -3.6352201 25.1057
-3.05533 -3.6384201 25.1378
-3.0222199 -3.63711 25.1376
-2.9948399 -3.64171 25.1611
-2.9670501 -3.6463001 25.191
-2.9395399 -3.65136 25.224501
-2.9107399 -3.65539 25.2579
-2.88902 -3.6674399 25.3314
-2.86358 -3.67576 25.3901
-2.8399899 -3.6868701 25.470699
-2.36151 -3.4693899 24.104099
-2.32164 -3.4549999 24.0028
-2.29568 -3.4609499 24.0403
-2.2536399 -3.4436901 23.927099
-2.2177999 -3.4363401 23.888901
-2.1817501 -3.42822 23.842899
-2.1535699 -3.4296701 23.8419
-2.1163001 -3.4199901 23.7903
-2.08727 -3.4202099 23.7826
-2.05264 -3.41361 23.7456
-2.01717 -3.40607 23.706301
-1.99154 -3.4104199 23.7173
-1.95557 -3.4019899 23.6731
-1.92705 -3.4037299 23.681999
-1.89171 -3.3949499 23.628201
-1.86695 -3.4007199 23.6483
-1.83147 -3.39412 23.625601
-1.7998199 -3.39258 23.626499
-1.7678 -3.38872 23.6024
-1.7416 -3.3931899 23.6208
-1.70427 -3.38182 23.5606
-1.67776 -3.38485 23.565001
-1.64649 -3.3822801 23.5506
-1.61452 -3.3784399 23.5285
-1.58496 -3.3759501 23.498899
-1.56173 -3.38533 23.544201
-1.52518 -3.37535 23.4977
-1.49034 -3.3693099 23.4799
-1.46312 -3.37216 23.489201
-1.4350801 -3.3745799 23.501101
-1.40008 -3.3677199 23.4764
-1.37244 -3.37025 23.4858
-1.34246 -3.36888 23.474701
-1.31371 -3.3691299 23.4699
-1.2865601 -3.37151 23.473101
-1.2503099 -3.3638201 23.4524
-1.22495 -3.3717 23.4958
-1.19491 -3.37253 23.5077
-1.16616 -3.3727901 23.502701
-1.14095 -3.3803101 23.539301
-1.10878 -3.37447 23.5033
-1.0815001 -3.37745 23.512501
-1.0501 -3.3764501 23.517099
-1.0204999 -3.3766501 23.518499
-0.98865098 -3.36975 23.471701
-0.95535898 -3.36586 23.4648
-0.93180799 -3.3759301 23.5093
-0.90166998 -3.3747499 23.502399
-0.87051702 -3.3735001 23.502701
-0.84307599 -3.37637 23.5112
-0.81409103 -3.3766301 23.5082
-0.78228199 -3.3782699 23.538401
-0.75184298 -3.3745501 23.511801
-0.72082102 -3.37041 23.4863
-0.68788302 -3.35306 23.363501
-0.65733498 -3.35168 23.359501
-0.62794602 -3.34762 23.325001
-0.59857798 -3.3452401 23.3048
-0.56514102 -3.3345201 23.245399
-0.53607202 -3.3336201 23.2362
-0.50187701 -3.31759 23.141001
-0.47428799 -3.31795 23.1327
-0.44356599 -3.3075099 23.0606
-0.413472 -3.3013 23.0186
-0.38261601 -3.2946701 22.979099
-0.353421 -3.2835901 22.895
-0.320775 -3.27404 22.8466
-0.29360199 -3.27441 22.8384
-0.26212499 -3.2667 22.797501
-0.229334 -3.25634 22.7458
-0.20154101 -3.2548299 22.7286
-0.17308 -3.2507 22.696699
-0.143061 -3.2442601 22.6583
-0.116929 -3.23704 22.590799
-0.087450199 -3.2321401 22.561399
-0.058341902 -3.22474 22.512501
-0.029574901 -3.2119701 22.4245
0.00028446599 -3.20367 22.3755
0.0271433 -3.1952801 22.3088
0.054424498 -3.19063 22.271299
0.084385797 -3.1824501 22.226
0.111416 -3.1679399 22.121401
0.139789 -3.1530099 22.023199
0.167742 -3.1459401 21.9765
0.194591 -3.13412 21.892599
0.223436 -3.1268499 21.8512
0.24973001 -3.12518 21.832701
0.277917 -3.1184001 21.7918
0.305379 -3.1137099 21.761
0.33261201 -3.10938 21.731501
0.35629901 -3.10794 21.7015
0.38350001 -3.10273 21.6672
0.41190699 -3.0945599 21.6213
0.44019601 -3.0864301 21.5755
0.46867099 -3.0810201 21.5481
0.492506 -3.0789199 21.517099
0.51823199 -3.0769899 21.497299
0.54499698 -3.0710199 21.458799
0.57071602 -3.07305 21.4634
0.59850699 -3.0689001 21.4417
0.62738103 -3.0650101 21.427401
0.65278703 -3.0644701 21.4154
0.67850298 -3.0641301 21.4062
0.70574999 -3.0604999 21.3857
0.73195398 -3.0567701 21.3596
0.75764 -3.0566299 21.351999
0.78274298 -3.0561199 21.339399
0.80936003 -3.0527799 21.318399
0.835177 -3.0518 21.306999
0.860071 -3.05231 21.299601
